ncols         383
nrows         31
xllcorner     99.8304378787
yllcorner     19.236037335
cellsize      0.00018075110000001
nodata_value  -9999.0
393.18 393.198 393.23 393.239 393.243 393.239 393.222 393.206 393.195 393.197 393.229 393.259 393.279 393.276 393.265 393.255 393.218 393.153 393.083 393.001 392.927 392.868 392.766 392.616 392.506 392.494 392.516 392.475 392.37 392.289 392.197 392.167 392.164 392.173 392.175 392.17 392.146 392.116 392.124 392.146 392.165 392.17 392.162 392.15 392.146 392.155 392.166 392.154 392.116 392.068 392.022 391.995 391.932 391.872 391.8 391.815 391.769 391.836 391.788 391.868 391.737 391.813 391.832 391.82 391.825 391.818 391.768 391.761 391.784 391.822 391.785 391.785 391.856 391.902 391.867 391.737 391.685 391.63 391.612 391.592 391.574 391.582 391.611 391.665 391.733 391.804 391.847 391.86 391.775 391.66 391.657 391.414 391.148 391.471 391.319 390.85 391.206 391.878 391.835 391.64 391.524 391.484 391.474 391.455 391.343 391.125 390.995 390.965 390.931 390.895 390.88 390.901 390.942 390.972 390.988 390.99 390.992 391.108 391.196 391.062 391.064 391.07 391.07 391.07 391.07 391.07 391.07 391.063 391.04 391.007 390.975 390.961 390.96 390.957 390.945 390.892 390.828 390.77 390.761 390.773 390.823 390.903 390.921 390.892 390.844 390.797 390.774 390.77 390.765 390.754 390.742 390.731 390.719 390.716 390.714 390.715 390.72 390.741 390.835 391.026 391.449 391.936 392.418 392.838 393.004 394.153 394.051 393.774 393.724 394.1 394.467 394.925 395.309 395.493 395.597 395.793 396.211 396.675 397.141 397.496 397.388 398.482 399.024 399.346 399.956 400.384 400.568 400.74 400.901 400.901 400.864 400.908 401.019 400.977 400.86 400.593 400.283 400.175 400.183 399.886 399.287 398.877 398.72 398.711 398.737 398.85 399.132 399.445 399.988 400.701 401.621 402.594 403.266 403.945 404.947 406.035 407.375 407.428 407.08 406.93 407.068 408.909 410.623 411.531 412.218 412.387 412.418 412.613 412.549 411.818 410.958 410.102 409.443 408.611 408.045 408.113 408.179 408.371 408.569 408.745 408.641 408.056 407.285 406.607 405.967 405.32 404.888 404.346 404.3 404.548 404.783 405.185 405.579 405.724 405.775 405.923 406.104 406.344 406.431 406.392 406.169 405.82 405.411 404.933 404.549 404.1 403.706 403.408 403.422 403.774 404.197 404.646 405.046 405.764 406.596 407.663 408.871 410.002 411.078 412.236 413.229 414.462 415.458 416.208 416.542 416.357 416.407 415.603 415.066 414.435 413.669 412.407 410.668 410.19 409.812 408.776 408.179 407.665 407.255 406.898 406.657 406.526 406.574 406.707 406.863 407.218 407.828 408.604 409.368 410.147 410.887 411.585 412.241 412.592 412.757 412.91 413.055 413.076 412.956 412.907 412.792 412.616 412.394 412.497 412.78 413.111 413.655 414.597 415.768 416.631 417.722 418.781 419.668 420.285 420.573 420.487 419.867 419.518 419.045 418.484 418.182 418.034 417.953 417.972 418.081 418.182 418.223 418.084 417.609 416.759 415.885 415.112 414.134 413.499 412.923 412.75 412.624 412.28 412.047 412.198 412.475 412.695 413.005 413.295 413.412 413.351 413.225 413.081 413.012 413.052 413.167 413.38 414.012 414.789 413.361 413.012 413.237 413.474 413.734 413.944 414.213 414.667 415.16
393.079 393.076 393.115 393.145 393.162 393.152 393.117 393.074 393.049 393.073 393.137 393.217 393.265 393.241 393.123 393.163 393.145 393.079 393.01 392.933 392.855 392.789 392.671 392.53 392.44 392.403 392.407 392.367 392.271 392.207 392.162 392.16 392.162 392.172 392.179 392.181 392.177 392.152 392.132 392.146 392.165 392.163 392.151 392.131 392.127 392.134 392.141 392.126 392.097 392.072 392.041 391.951 391.773 391.734 391.761 391.792 391.78 391.829 391.817 391.786 391.785 391.813 391.765 391.792 391.776 391.772 391.814 391.831 391.818 391.798 391.756 391.765 391.871 391.958 391.925 391.784 391.741 391.637 391.584 391.543 391.525 391.544 391.595 391.656 391.699 391.635 391.616 391.734 391.766 391.646 391.61 391.489 391.136 390.874 390.853 391.284 391.819 391.915 391.881 391.73 391.551 391.486 391.475 391.458 391.352 391.144 390.987 390.911 390.865 390.834 390.825 390.852 390.91 390.956 390.987 390.99 391.002 391.159 391.324 391.129 391.064 391.07 391.07 391.07 391.07 391.07 391.07 391.062 391.039 391.007 390.975 390.961 390.96 390.957 390.944 390.891 390.82 390.769 390.761 390.777 390.828 390.898 390.916 390.892 390.843 390.799 390.775 390.77 390.765 390.751 390.739 390.726 390.711 390.71 390.71 390.71 390.711 390.723 390.795 390.966 391.376 391.842 392.287 392.56 392.676 393.773 394.379 393.865 393.631 393.934 394.389 394.859 395.193 395.333 395.38 395.535 395.936 396.415 396.906 397.446 398.036 398.531 398.716 398.95 399.378 399.703 399.878 399.974 400.059 400.094 400.009 399.952 399.979 399.895 399.697 399.294 398.845 398.722 398.909 398.786 398.508 398.334 398.311 398.374 398.499 398.745 399.084 399.407 399.971 400.644 401.433 402.215 402.813 403.482 404.452 405.382 406.287 406.059 405.525 404.954 404.855 407.417 409.607 410.568 411.395 412.069 412.599 412.838 412.697 412.132 411.327 410.366 409.617 408.577 407.75 407.492 407.309 407.461 407.769 408.166 408.169 407.737 407.074 406.486 405.893 405.221 404.711 404.28 404.033 404.223 404.367 404.661 404.93 405.11 405.293 405.477 405.641 405.637 405.53 405.172 404.707 404.926 404.697 404.212 403.848 403.487 403.304 403.188 403.348 403.863 404.479 405.082 405.52 406.227 407.004 408.006 409.221 410.481 411.725 412.901 413.752 414.747 415.652 416.386 416.688 416.66 416.215 415.583 415.301 414.598 413.748 412.555 411.2 410.247 409.374 408.461 407.869 407.4 407.074 406.742 406.483 406.361 406.416 406.543 406.731 407.209 407.9 408.577 409.253 409.913 410.53 411.218 411.854 412.179 412.316 412.411 412.485 412.478 412.364 412.222 412.023 411.848 411.741 411.894 412.176 412.625 413.484 414.622 415.749 416.547 417.525 418.406 419.234 419.797 419.982 419.669 419.048 418.621 417.976 417.372 417.085 416.977 417.006 417.231 417.547 417.741 417.915 417.799 417.127 416.348 415.753 414.955 413.802 413.048 412.539 412.369 412.219 412.03 411.954 412.109 412.34 412.546 412.874 413.138 413.204 413.166 413.071 412.978 412.914 412.904 412.996 413.13 413.443 414.482 413.347 412.575 412.901 413.226 413.538 413.753 414.037 414.513 415.07
393.028 392.997 393.005 393.035 393.059 393.055 393.006 392.945 392.91 392.943 393.056 393.187 393.217 393.07 392.874 393.058 393.038 392.973 392.902 392.826 392.744 392.673 392.565 392.452 392.376 392.321 392.305 392.253 392.181 392.161 392.16 392.16 392.162 392.172 392.179 392.182 392.188 392.182 392.132 392.142 392.166 392.159 392.134 392.099 392.072 392.063 392.065 392.059 392.064 392.069 392.027 391.847 391.633 391.635 391.674 391.684 391.771 391.761 391.77 391.673 391.749 391.709 391.738 391.801 391.764 391.768 391.823 391.846 391.825 391.781 391.721 391.72 391.836 391.917 391.905 391.86 391.787 391.658 391.585 391.512 391.483 391.526 391.603 391.662 391.668 391.542 391.361 391.509 391.734 391.637 391.528 391.432 391.093 390.959 391.355 391.651 391.895 391.907 391.908 391.766 391.564 391.495 391.483 391.461 391.367 391.17 390.969 390.845 390.788 390.762 390.758 390.797 390.872 390.947 390.987 390.99 391.049 391.284 391.339 391.175 391.064 391.073 391.08 391.07 391.07 391.07 391.07 391.062 391.039 391.008 390.98 390.961 390.96 390.957 390.944 390.884 390.811 390.767 390.762 390.781 390.842 390.904 390.922 390.896 390.843 390.799 390.775 390.77 390.765 390.753 390.744 390.727 390.711 390.71 390.71 390.71 390.71 390.71 390.766 390.918 391.286 391.688 392.042 392.251 392.664 393.157 394.47 394.104 393.778 393.835 394.232 394.641 394.881 395.007 395.092 395.271 395.638 396.092 396.582 397.078 397.636 398.145 398.344 398.474 398.744 399.032 399.083 399.046 399.235 399.435 399.306 399.156 399.007 398.833 398.624 398.305 397.956 397.894 398.102 398.116 398.092 398.088 398.152 398.277 398.502 398.815 399.169 399.514 400.125 400.763 401.339 401.918 402.525 403.223 404.016 404.585 405.005 404.678 404.36 404.334 404.33 405.496 408.284 409.67 410.685 411.092 412.24 412.572 412.699 412.443 411.674 410.544 409.741 408.685 407.769 407.095 406.592 406.59 407.014 407.537 407.649 407.382 406.847 406.341 405.759 405.072 404.513 404.126 403.735 403.894 403.974 404.19 404.313 404.348 404.447 404.992 405.203 405.044 404.104 403.123 402.772 403.801 403.858 403.391 403.09 402.906 402.843 402.913 403.315 403.904 404.594 405.334 405.887 406.559 407.288 408.259 409.547 410.891 412.253 413.441 414.126 415.003 415.856 416.544 416.617 416.451 415.989 415.252 415.107 414.471 413.592 412.511 411.321 410.066 408.9 408.039 407.566 407.184 406.873 406.518 406.234 406.174 406.233 406.356 406.579 407.167 407.916 408.572 409.136 409.617 410.182 410.822 411.375 411.624 411.688 411.738 411.786 411.744 411.564 411.403 411.284 411.201 411.174 411.414 411.843 412.542 413.59 414.714 415.791 416.543 417.403 418.141 418.821 419.221 419.238 418.842 418.206 417.677 416.96 416.31 416.028 415.95 416.165 416.558 416.873 417.079 417.293 417.082 416.445 415.905 415.38 414.589 413.489 412.699 412.206 412.031 411.923 411.83 411.834 411.981 412.182 412.391 412.672 412.435 412.957 412.928 412.843 412.843 412.831 412.827 412.843 412.817 412.712 413.285 414.691 412.744 412.717 413.042 413.349 413.561 413.861 414.378 415.024
393.107 393.023 392.985 392.986 392.998 392.978 392.926 392.867 392.839 392.912 393.067 393.197 393.138 392.929 392.899 392.993 392.945 392.869 392.795 392.725 392.634 392.565 392.465 392.377 392.315 392.262 392.226 392.178 392.157 392.16 392.16 392.16 392.163 392.172 392.18 392.184 392.193 392.177 392.102 392.137 392.166 392.147 392.115 392.071 392.029 392.023 392.028 392.029 392.06 392.066 392.019 391.845 391.514 391.372 391.642 391.675 391.754 391.731 391.783 391.718 391.737 391.737 391.777 391.823 391.765 391.768 391.822 391.845 391.81 391.749 391.673 391.655 391.759 391.8 391.769 391.819 391.765 391.682 391.609 391.54 391.521 391.556 391.611 391.641 391.601 391.544 391.383 391.452 391.676 391.604 391.499 391.352 391.049 390.904 391.348 391.604 391.85 391.922 391.919 391.783 391.579 391.506 391.488 391.466 391.398 391.216 390.982 390.809 390.72 390.698 390.704 390.767 390.874 390.964 390.989 390.99 391.06 391.321 391.34 391.174 391.1 391.158 391.226 391.087 391.07 391.07 391.07 391.062 391.04 391.01 390.981 390.961 390.96 390.957 390.943 390.886 390.81 390.767 390.762 390.778 390.841 390.906 390.925 390.899 390.847 390.799 390.775 390.77 390.768 390.76 390.746 390.727 390.711 390.71 390.71 390.71 390.708 390.707 390.771 390.911 391.219 391.556 391.877 392.182 392.585 392.811 394.036 394.184 393.917 393.726 393.935 394.246 394.461 394.623 394.854 395.075 395.44 395.875 396.335 396.725 397.194 397.641 397.839 397.942 398.222 398.454 398.323 398.231 398.567 398.886 398.895 398.764 398.482 398.218 398.076 397.92 397.745 397.704 397.81 397.875 397.968 398.06 398.172 398.354 398.62 398.954 399.329 399.721 400.407 400.987 401.337 401.753 402.312 402.951 403.509 403.806 404.104 404.298 404.329 404.366 404.345 404.496 407.115 408.886 409.824 409.467 410.884 412.109 412.65 412.615 411.847 410.685 409.895 408.875 407.869 406.904 406.117 405.925 406.3 406.701 406.9 406.855 406.5 406.057 405.481 404.807 404.206 403.776 403.316 403.485 403.371 403.374 403.4 403.913 404.193 404.551 404.727 404.412 402.947 402.612 402.643 403 403.009 402.641 402.531 402.492 402.557 402.888 403.351 403.88 404.567 405.344 405.906 406.651 407.421 408.392 409.666 411.057 412.481 413.634 414.347 415.205 415.916 416.241 416.173 415.934 415.431 414.421 414.538 414.068 413.04 412.006 410.721 409.462 408.461 407.773 407.361 407 406.654 406.38 406.174 406.045 406.066 406.212 406.506 407.206 407.987 408.594 409.057 409.455 409.843 410.295 410.757 410.968 410.993 410.993 410.915 410.793 410.783 410.773 410.735 410.696 410.865 411.319 411.86 412.662 413.743 414.853 415.87 416.512 417.15 417.729 418.218 418.567 418.487 418.047 417.403 416.805 415.963 415.245 415.002 415.001 415.37 415.881 416.24 416.43 416.548 416.286 415.764 415.229 414.635 413.923 413.026 412.365 411.794 411.57 411.597 411.634 411.744 411.892 412.097 412.369 412.593 412.36 412.691 412.571 412.683 412.838 412.822 412.841 412.781 412.636 412.43 412.697 413.958 413.234 412.687 412.919 413.19 413.436 413.785 414.318 414.948
392.547 392.456 392.464 392.436 392.402 392.421 392.462 392.482 392.506 392.535 392.637 392.738 392.744 392.758 392.902 392.968 392.851 392.764 392.697 392.646 392.562 392.49 392.402 392.342 392.288 392.238 392.205 392.186 392.178 392.176 392.171 392.168 392.17 392.175 392.184 392.193 392.179 392.125 392.083 392.143 392.166 392.14 392.1 392.055 392.038 392.05 392.049 392.061 392.086 392.071 392.04 391.906 391.656 391.237 391.452 391.703 391.796 391.764 391.839 391.771 391.76 391.788 391.894 391.875 391.765 391.769 391.825 391.842 391.787 391.71 391.62 391.591 391.647 391.7 391.741 391.707 391.71 391.694 391.628 391.692 391.703 391.626 391.63 391.617 391.54 391.49 391.436 391.47 391.628 391.621 391.513 391.358 391.338 391.223 390.884 390.916 391.679 391.936 391.925 391.786 391.588 391.515 391.492 391.473 391.432 391.271 391.031 390.817 390.698 390.675 390.69 390.768 390.891 390.975 390.989 390.99 391.065 391.325 391.339 391.248 391.327 391.34 391.339 391.184 391.07 391.07 391.07 391.064 391.046 391.015 390.981 390.961 390.96 390.957 390.944 390.889 390.815 390.768 390.761 390.775 390.835 390.904 390.925 390.902 390.85 390.803 390.775 390.77 390.77 390.761 390.746 390.727 390.711 390.71 390.71 390.71 390.711 390.74 390.854 390.997 391.278 391.595 391.877 392.063 392.254 392.399 393.448 394.292 394.201 393.876 393.74 393.87 394.08 394.402 394.793 395.039 395.399 395.78 396.111 396.348 396.665 396.926 397.154 397.363 397.758 397.963 397.809 397.751 398.013 398.374 398.672 398.624 398.272 397.901 397.771 397.675 397.607 397.595 397.653 397.736 397.926 398.1 398.283 398.532 398.879 399.276 399.69 400.121 400.789 401.22 401.414 401.715 402.207 402.728 403.131 403.339 403.602 403.993 404.304 404.405 404.501 404.535 406.241 407.991 408.879 409.036 409.526 411.561 412.32 412.434 411.742 410.783 410.069 409.048 408.01 406.978 406.067 405.575 405.589 405.796 406.021 406.069 405.88 405.538 405.02 404.372 403.765 403.337 402.824 402.802 402.649 403.14 403.411 403.608 403.791 404.032 404.116 403.811 403.051 402.83 402.757 402.616 402.395 402.291 402.258 402.299 402.598 403.044 403.46 403.941 404.556 405.31 405.866 406.643 407.478 408.448 409.631 410.984 412.407 413.538 414.284 414.886 415.222 415.428 415.371 415.013 414.388 413.315 413.199 412.878 412.281 411.265 410.017 408.968 408.096 407.467 407.098 406.708 406.385 406.193 406.015 405.991 406.052 406.194 406.51 407.245 407.993 408.559 408.997 409.256 409.471 409.844 410.187 410.298 410.299 410.144 409.908 409.883 410.213 410.273 410.233 410.403 410.875 411.377 411.955 412.798 413.88 414.921 415.798 416.332 416.842 417.181 417.645 417.873 417.66 417.252 416.607 415.981 415.067 414.294 414.044 414.092 414.509 415.077 415.528 415.759 415.825 415.553 415.032 414.458 413.843 413.175 412.443 411.906 411.254 411.054 411.234 411.48 411.695 411.91 412.244 412.55 412.698 412.535 412.279 412.335 412.505 412.686 412.418 412.57 412.672 412.438 412.225 412.194 412.7 414.073 412.957 412.906 413.177 413.465 413.836 414.408 415.035
393.072 392.883 393.148 393.103 393.038 392.999 392.96 392.926 392.908 392.966 393.078 393.119 392.486 392.822 392.953 392.919 392.763 392.667 392.618 392.603 392.533 392.467 392.401 392.353 392.304 392.264 392.255 392.25 392.238 392.226 392.209 392.2 392.197 392.19 392.194 392.202 392.201 392.197 392.144 392.154 392.166 392.145 392.096 392.058 392.063 392.063 392.052 392.062 392.081 392.087 392.085 391.984 391.871 391.556 391.038 391.727 391.762 391.759 391.765 391.788 391.776 391.878 391.936 391.859 391.765 391.773 391.84 391.847 391.779 391.7 391.617 391.578 391.576 391.634 391.731 391.646 391.694 391.702 391.632 391.699 391.698 391.65 391.658 391.612 391.509 391.453 391.468 391.475 391.476 391.487 391.499 391.377 391.419 391.459 391.377 390.861 391.476 391.964 391.931 391.787 391.596 391.525 391.501 391.488 391.462 391.322 391.088 390.865 390.732 390.695 390.704 390.772 390.896 390.982 390.99 390.99 391.067 391.325 391.34 391.34 391.34 391.34 391.339 391.179 391.07 391.07 391.07 391.066 391.049 391.016 390.981 390.961 390.96 390.957 390.944 390.889 390.817 390.768 390.761 390.774 390.832 390.899 390.925 390.905 390.853 390.803 390.775 390.77 390.77 390.761 390.746 390.727 390.716 390.711 390.71 390.711 390.727 390.822 390.975 391.121 391.402 391.705 391.892 392.021 392.12 392.151 392.408 393.672 394.336 394.098 393.764 393.688 393.85 394.349 394.846 395.117 395.396 395.621 395.779 395.908 396.048 396.169 396.478 396.811 397.273 397.466 397.403 397.379 397.498 397.967 398.392 398.335 397.937 397.538 397.401 397.317 397.349 397.411 397.474 397.585 397.874 398.207 398.585 399.03 399.617 400.148 400.579 400.923 401.347 401.567 401.671 401.931 402.426 402.926 403.335 403.508 403.573 403.949 404.328 404.524 404.52 404.521 405.531 407.061 407.85 408.593 409.718 410.792 411.671 411.979 411.54 410.847 410.211 409.194 408.224 407.262 406.239 405.397 405.107 405.039 405.094 404.998 404.96 404.803 404.404 403.848 403.306 402.894 402.688 402.631 402.616 402.862 403.042 403.149 403.288 403.467 403.505 403.191 402.666 402.362 402.257 402.18 402.216 402.249 402.332 402.621 403.003 403.328 403.719 404.266 404.9 405.554 406.023 406.827 407.674 408.59 409.569 410.667 411.823 412.845 413.335 413.851 414.286 414.418 414.273 413.874 413.211 411.962 411.625 411.575 411.356 410.463 409.292 408.376 407.65 407.057 406.68 406.287 405.998 405.879 405.893 406.09 406.169 406.153 406.343 406.93 407.498 408.125 408.657 408.901 409.092 409.305 409.46 409.544 409.59 409.387 409.223 409.365 409.752 409.576 409.822 410.515 411.189 411.704 412.199 412.88 413.843 414.799 415.616 416.11 416.48 416.719 417.163 417.076 416.87 416.465 415.805 415.183 414.352 413.619 413.365 413.266 413.548 414.084 414.594 414.877 415.051 414.791 414.244 413.691 413.13 412.496 411.847 411.337 410.758 410.627 410.9 411.258 411.625 412.007 412.415 412.574 412.438 412.206 412.131 412.19 412.298 412.552 412.694 412.685 412.405 412.17 412.112 412.113 412.407 413.581 413.263 413.088 413.286 413.573 414.131 414.928 415.115
393.087 393.176 393.284 393.214 393.139 393.096 393.056 393.023 393.004 393.032 393.096 393.204 392.767 392.662 392.887 392.859 392.693 392.584 392.555 392.547 392.502 392.454 392.412 392.37 392.326 392.315 392.321 392.313 392.293 392.278 392.259 392.244 392.232 392.215 392.208 392.212 392.214 392.213 392.151 392.154 392.167 392.146 392.101 392.055 392.046 392.06 392.051 392.043 392.071 392.122 392.128 392.054 391.984 391.747 391.056 391.759 391.747 391.725 391.757 391.851 391.839 391.895 391.868 391.835 391.778 391.806 391.857 391.857 391.796 391.739 391.686 391.649 391.607 391.63 391.729 391.651 391.711 391.712 391.639 391.695 391.721 391.662 391.655 391.602 391.485 391.413 391.466 391.572 391.633 391.593 391.49 391.384 391.296 391.018 390.917 390.826 391.521 391.966 391.934 391.794 391.606 391.542 391.52 391.512 391.495 391.346 391.118 390.934 390.787 390.736 390.725 390.773 390.898 390.983 390.99 390.991 391.073 391.326 391.34 391.34 391.34 391.34 391.264 391.118 391.07 391.07 391.07 391.068 391.054 391.018 390.988 390.967 390.96 390.957 390.945 390.9 390.824 390.769 390.761 390.774 390.832 390.897 390.927 390.909 390.856 390.806 390.779 390.77 390.77 390.761 390.746 390.729 390.719 390.711 390.71 390.713 390.754 390.896 391.063 391.211 391.492 391.776 391.939 392.177 392.242 392.152 392.28 393.068 394.387 394.213 394.044 393.705 393.719 394.275 394.768 395.081 395.243 395.321 395.402 395.488 395.551 395.655 395.971 396.314 396.683 396.821 396.911 397.036 397.269 397.755 398.047 397.947 397.525 397.146 396.974 396.976 397.192 397.348 397.385 397.477 397.812 398.447 399.122 399.85 400.67 401.345 401.774 401.954 402.127 402.233 402.276 402.518 402.875 403.685 404.284 404.285 404.023 404.22 404.458 404.713 404.608 404.671 405.338 406.03 406.413 407.418 408.738 409.849 410.873 411.424 411.364 410.813 410.219 409.263 408.41 407.504 406.461 405.658 405.107 404.568 404.277 403.987 404.017 404.028 403.82 403.454 403.013 402.568 402.354 402.289 402.223 402.44 402.594 402.697 402.825 402.929 402.866 402.512 402.069 401.834 401.886 402.054 402.234 402.502 402.779 403.135 403.396 403.648 404.11 404.731 405.305 405.832 406.283 407.066 407.92 408.714 409.378 410.245 410.915 411.417 411.977 412.638 413.133 413.195 412.997 412.626 411.775 410.535 410.174 410.447 410.379 409.55 408.54 407.841 407.207 406.606 406.211 405.795 405.519 405.577 405.858 406.115 406.09 406.08 406.167 406.436 406.793 407.536 408.163 408.418 408.596 408.716 408.788 408.839 408.923 408.922 408.854 408.993 408.918 409.059 410.184 410.876 411.588 412.073 412.356 412.926 413.771 414.562 415.266 415.668 415.993 416.351 416.513 416.343 416.119 415.655 414.965 414.384 413.642 413.039 412.658 412.365 412.586 413.113 413.54 413.801 413.993 413.808 413.388 412.916 412.396 411.831 411.188 410.727 410.336 410.251 410.55 411.005 411.504 411.943 412.272 412.334 412.247 412.134 412.099 412.095 412.158 412.298 412.373 412.329 412.126 412.107 412.164 412.33 412.712 413.441 414.123 413.724 413.456 413.785 414.88 414.743 414.71
393.141 393.276 393.338 393.263 393.2 393.171 393.155 393.137 393.108 393.053 393.023 393.087 393.094 392.74 392.547 392.768 392.667 392.529 392.506 392.503 392.482 392.452 392.418 392.379 392.367 392.371 392.373 392.362 392.344 392.327 392.307 392.283 392.259 392.24 392.225 392.224 392.229 392.22 392.144 392.153 392.173 392.147 392.101 392.055 392.056 392.065 392.06 392.04 392.073 392.147 392.143 392.068 392.001 391.943 391.49 391.697 391.88 391.831 391.791 391.856 391.852 391.873 391.824 391.856 391.821 391.821 391.858 391.879 391.842 391.811 391.78 391.74 391.668 391.659 391.734 391.678 391.735 391.721 391.633 391.548 391.535 391.587 391.631 391.588 391.466 391.38 391.44 391.609 391.72 391.704 391.544 391.443 391.133 390.843 391.037 390.828 391.552 391.929 391.921 391.796 391.621 391.567 391.548 391.542 391.508 391.275 391.107 391.013 390.844 390.764 390.734 390.768 390.897 390.983 390.99 390.992 391.072 391.323 391.34 391.34 391.288 391.202 391.133 391.073 391.07 391.07 391.07 391.07 391.057 391.027 390.998 390.973 390.961 390.958 390.952 390.912 390.833 390.771 390.761 390.774 390.822 390.889 390.926 390.914 390.859 390.812 390.78 390.77 390.77 390.763 390.752 390.734 390.719 390.711 390.71 390.716 390.767 390.921 391.097 391.25 391.533 391.807 391.983 392.246 392.265 392.117 392.184 392.461 393.953 394.539 394.274 393.824 393.715 394.128 394.544 394.835 394.929 394.973 395.043 395.12 395.197 395.304 395.547 395.8 396.05 396.187 396.473 396.921 397.284 397.626 397.833 397.736 397.243 396.808 396.78 396.992 397.268 397.427 397.465 397.569 397.941 398.723 399.553 400.486 401.463 402.338 402.734 402.52 402.952 403.102 403.144 402.956 402.927 403.824 405.238 405.19 404.889 404.824 404.843 405.067 405.163 405.159 405.17 405.203 405.412 406.315 407.68 408.981 409.931 410.593 410.747 410.331 409.838 409.067 408.418 407.712 406.948 406.258 405.491 404.639 404.052 403.454 403.326 403.375 403.381 403.232 402.95 402.564 402.302 402.061 401.793 401.975 402.123 402.235 402.319 402.279 402.15 401.861 401.601 401.598 401.788 402.054 402.527 403.016 403.3 403.576 403.789 404.1 404.623 405.184 405.651 406.151 406.616 407.377 408.223 408.813 409.151 409.392 409.829 410.392 410.836 411.457 411.936 411.978 411.748 411.284 410.34 409.286 408.873 409.381 409.336 408.591 407.75 407.043 406.666 406.104 405.711 405.364 405.189 405.391 405.646 406.059 406.08 406.083 406.116 406.115 406.365 407.063 407.645 407.918 408.103 408.174 408.197 408.247 408.338 408.412 408.447 408.158 408.423 409.548 410.403 410.937 411.593 411.983 412.305 412.847 413.494 414.135 414.747 415.116 415.556 416.004 415.755 415.636 415.314 414.766 414.066 413.535 412.918 412.398 411.933 411.589 411.789 412.282 412.635 412.817 412.889 412.759 412.497 412.113 411.63 411.077 410.476 410.116 409.915 409.914 410.231 410.757 411.279 411.67 411.952 412.034 412.031 411.854 412.008 412.044 412.146 412.21 412.185 412.059 411.899 411.955 412.282 412.178 412.673 413.232 413.98 414.492 413.941 414.003 414.768 415.161 415.537
393.067 393.346 393.38 393.313 393.278 393.278 393.279 393.271 393.247 393.151 393.02 392.987 392.969 392.974 392.785 392.442 392.382 392.44 392.494 392.487 392.465 392.443 392.41 392.394 392.392 392.392 392.392 392.386 392.366 392.349 392.324 392.299 392.277 392.197 392.128 392.229 392.257 392.236 392.125 392.148 392.173 392.15 392.107 392.068 392.039 392.051 392.066 392.046 392.074 392.135 392.127 392.058 392 391.991 391.64 391.43 391.94 391.912 391.798 391.843 391.896 391.904 391.895 391.912 391.892 391.844 391.87 391.902 391.884 391.865 391.834 391.783 391.701 391.684 391.74 391.703 391.747 391.722 391.625 391.502 391.478 391.545 391.612 391.577 391.449 391.353 391.421 391.624 391.768 391.767 391.585 391.462 391.371 391.139 391.074 390.834 391.576 391.878 391.861 391.764 391.624 391.587 391.577 391.568 391.477 391.216 391.166 391.083 390.89 390.783 390.745 390.762 390.891 390.982 390.99 390.992 391.038 391.231 391.333 391.34 391.268 391.106 391.082 391.073 391.07 391.07 391.07 391.07 391.06 391.037 391.007 390.981 390.966 390.96 390.955 390.919 390.837 390.776 390.763 390.772 390.802 390.873 390.922 390.915 390.862 390.813 390.779 390.77 390.77 390.765 390.755 390.736 390.719 390.711 390.71 390.716 390.772 390.924 391.109 391.272 391.56 391.835 391.986 392.163 392.147 392.081 392.156 392.318 393.194 394.551 394.411 394.132 393.754 393.929 394.206 394.469 394.589 394.667 394.739 394.823 394.922 395.032 395.211 395.416 395.667 395.895 396.452 397.049 397.344 397.573 397.779 397.722 397.235 396.926 397.273 397.538 397.599 397.652 397.737 397.887 398.217 398.812 399.661 400.73 401.856 402.819 402.527 402.189 402.744 403.873 403.658 402.99 403.569 405.536 406.203 406.142 405.926 405.64 405.461 405.443 405.328 405.05 404.912 404.898 405.098 405.89 407.171 408.21 408.86 409.431 409.673 409.473 409.158 408.667 408.263 407.816 407.292 406.666 405.953 405.157 404.477 403.595 403.025 402.835 402.827 402.957 402.965 402.751 402.483 402.011 401.541 401.509 401.594 401.688 401.715 401.619 401.548 401.517 401.456 401.528 401.781 402.317 402.996 403.513 403.762 403.985 404.253 404.675 405.153 405.575 406.044 406.61 407.169 408.022 408.788 408.796 408.46 408.625 409.049 409.458 409.804 410.343 410.639 410.632 410.384 409.885 409.146 408.44 407.78 408.379 408.236 407.316 405.918 405.093 406.027 405.515 405.169 405.015 404.953 405.207 405.565 405.997 405.995 405.966 405.926 405.85 406.142 406.746 407.141 407.341 407.493 407.57 407.637 407.713 407.809 407.882 407.654 407.623 408.844 409.69 410.338 410.77 411.269 411.656 412.048 412.522 413.07 413.659 414.234 414.598 415.174 415.287 415.129 414.938 414.536 413.954 413.25 412.755 412.208 411.746 411.257 410.867 411.071 411.567 411.858 411.922 411.908 411.832 411.659 411.312 410.843 410.39 410.013 409.798 409.731 409.756 409.956 410.478 410.985 411.341 411.581 411.776 411.508 410.96 411.935 412.075 412.166 412.155 411.953 411.772 411.542 411.517 412.03 412.478 412.988 413.389 413.874 414.58 414.418 414.235 414.625 415.215 415.664
393.194 393.455 393.419 393.379 393.374 393.378 393.385 393.384 393.368 393.274 393.095 392.956 392.929 393.015 393.046 392.852 392.53 392.279 392.303 392.332 392.334 392.31 392.276 392.261 392.262 392.263 392.264 392.262 392.248 392.241 392.234 392.226 392.214 392.131 392.03 392.191 392.31 392.284 392.124 392.146 392.175 392.167 392.139 392.11 392.065 392.067 392.064 392.042 392.055 392.108 392.105 392.048 391.999 391.985 391.757 391.028 391.847 391.801 391.767 391.796 391.87 391.837 391.871 391.915 391.907 391.892 391.905 391.909 391.894 391.872 391.82 391.786 391.716 391.699 391.743 391.729 391.765 391.723 391.624 391.5 391.481 391.549 391.612 391.581 391.437 391.327 391.402 391.604 391.785 391.8 391.613 391.46 391.465 391.196 390.885 390.916 391.606 391.815 391.779 391.702 391.621 391.601 391.593 391.546 391.369 391.233 391.269 391.111 390.917 390.802 390.758 390.758 390.878 390.975 390.989 390.991 390.994 391.048 391.116 391.189 391.299 391.132 391.033 391.047 391.07 391.07 391.07 391.07 391.064 391.046 391.017 390.991 390.973 390.961 390.956 390.922 390.848 390.786 390.764 390.765 390.788 390.866 390.922 390.918 390.865 390.812 390.78 390.77 390.77 390.765 390.755 390.736 390.719 390.711 390.71 390.718 390.779 390.917 391.104 391.28 391.588 391.866 391.999 392.098 392.075 392.092 392.144 392.239 392.569 393.909 394.543 394.374 393.793 393.765 393.909 394.175 394.367 394.504 394.578 394.658 394.759 394.869 395.035 395.251 395.622 396.155 396.837 397.374 397.609 397.713 397.861 397.898 397.779 397.821 398.239 398.311 398.156 398.077 398.1 398.201 398.391 398.784 399.573 400.628 401.774 402.796 402.348 402.234 403.133 404.512 404.783 404.238 405.454 406.294 406.899 406.827 406.574 406.278 406.104 405.979 405.635 405.178 404.908 404.857 405.068 405.727 406.557 407.126 407.696 408.406 408.869 408.826 408.636 408.288 408.045 407.765 407.368 406.83 406.25 405.667 405.119 404.121 403.249 402.5 402.252 402.508 402.779 402.797 402.567 402.024 401.543 401.248 401.205 401.241 401.183 401.137 401.146 401.188 401.311 401.5 401.994 402.652 403.459 404.019 404.194 404.278 404.536 404.987 405.441 406.001 406.695 407.45 408.149 408.908 408.95 408.44 407.97 408.049 408.258 408.536 408.753 409 409.081 408.97 408.709 408.349 408.028 407.694 407.091 407.465 407.229 406.482 404.599 404.381 405.467 404.989 404.674 404.594 404.713 405.015 405.219 405.312 405.42 405.562 405.617 405.647 405.904 406.305 406.599 406.73 406.849 406.977 407.121 407.242 407.37 407.325 406.932 408.08 408.928 409.584 410.147 410.481 410.875 411.28 411.695 412.148 412.645 413.162 413.67 414.118 414.673 414.597 414.472 414.245 413.813 413.257 412.556 412.044 411.534 411.155 410.66 410.275 410.484 410.985 411.208 411.187 411.071 410.978 410.837 410.547 410.145 409.849 409.709 409.675 409.676 409.675 409.823 410.283 410.651 410.866 411.112 411.49 411.015 411.634 411.812 411.929 412.005 411.902 411.655 411.507 411.585 411.895 412.281 412.579 413.049 413.48 413.884 414.305 414.978 414.745 414.877 415.316 415.761
393.248 393.492 393.472 393.463 393.458 393.442 393.394 393.382 393.371 393.289 393.131 392.937 392.854 392.915 393.007 392.906 392.658 392.506 392.464 392.362 392.205 392.276 392.375 392.39 392.389 392.389 392.387 392.386 392.362 392.339 392.313 392.281 392.255 392.231 392.158 392.139 392.137 392.095 392.087 392.096 392.115 392.127 392.126 392.102 392.039 391.996 391.956 391.931 391.948 392.109 392.104 392.059 392.01 391.991 391.833 391.078 391.767 391.833 391.796 391.822 391.852 391.822 391.866 391.917 391.917 391.905 391.905 391.907 391.885 391.828 391.715 391.788 391.739 391.725 391.749 391.769 391.788 391.725 391.623 391.5 391.482 391.55 391.618 391.583 391.425 391.296 391.382 391.494 391.558 391.446 391.384 391.304 391.31 391.278 390.856 391.24 391.638 391.737 391.719 391.676 391.635 391.62 391.606 391.535 391.319 391.295 391.298 391.101 390.924 390.812 390.767 390.76 390.861 390.96 390.988 390.99 390.991 390.994 390.989 390.973 390.941 390.574 390.531 390.831 391.066 391.07 391.07 391.07 391.068 391.056 391.027 390.999 390.974 390.961 390.956 390.93 390.865 390.802 390.767 390.763 390.79 390.873 390.925 390.92 390.865 390.815 390.783 390.77 390.77 390.765 390.755 390.736 390.719 390.711 390.711 390.727 390.795 390.906 391.07 391.255 391.602 391.889 392.026 392.075 392.088 392.106 392.141 392.205 392.396 393.258 394.529 394.565 394.225 393.74 393.788 394.027 394.272 394.452 394.527 394.577 394.664 394.815 395.048 395.358 396.04 396.822 397.529 398.101 398.25 398.121 398.227 398.412 398.742 398.938 399.1 398.992 398.799 398.641 398.482 398.451 398.515 398.766 399.424 400.352 401.459 402.532 402.778 403.734 404.353 404.779 405.168 405.533 405.939 406.409 406.881 406.903 406.754 406.714 406.803 406.745 406.329 405.692 405.159 404.901 404.824 405.144 405.607 406.066 406.806 407.706 408.299 408.374 408.258 407.974 407.753 407.44 407.022 406.615 406.254 405.793 405.354 404.468 403.582 402.571 401.929 401.976 402.3 402.391 402.245 401.849 401.571 401.465 401.35 401.149 400.912 400.863 400.853 400.922 401.148 401.645 402.315 403.105 403.943 404.407 404.454 404.499 404.775 405.245 405.818 406.746 407.801 408.664 408.896 409.087 409.05 408.282 407.626 407.387 407.455 407.461 407.543 407.622 407.564 407.393 407.186 407.076 406.943 406.753 406.455 406.386 406.223 405.867 404.723 404.294 405.022 404.705 404.453 404.378 404.525 404.728 404.805 404.875 405.094 405.337 405.411 405.477 405.642 405.885 406.088 406.256 406.456 406.536 406.752 406.999 406.615 406.779 407.09 407.924 408.628 409.25 409.76 410.057 410.424 410.835 411.263 411.683 412.083 412.543 413.067 413.491 413.869 413.991 413.838 413.548 413.148 412.647 412.03 411.548 411.078 410.696 410.231 409.907 410.123 410.537 410.671 410.612 410.471 410.309 410.098 409.817 409.484 409.331 409.441 409.531 409.568 409.645 409.816 410.17 410.367 410.434 410.573 410.794 411.282 411.305 411.469 411.605 411.688 411.58 411.375 411.49 412.187 412.526 412.615 412.814 413.179 413.574 414.003 414.362 415.128 415.262 415.317 415.705 416.051
393.303 393.526 393.525 393.515 393.499 393.412 393.295 393.236 393.221 393.183 393.076 392.902 392.803 392.826 392.902 392.794 392.609 392.514 392.485 392.452 392.423 392.418 392.417 392.416 392.412 392.407 392.407 392.408 392.398 392.383 392.361 392.337 392.326 392.321 392.313 392.307 392.296 392.288 392.191 392.168 392.184 392.203 392.216 392.203 392.149 392.101 392.017 391.792 391.72 391.754 391.737 391.697 391.676 391.679 391.688 391.456 391.65 391.83 391.797 391.759 391.795 391.797 391.862 391.917 391.914 391.887 391.896 391.87 391.858 391.804 391.682 391.803 391.752 391.759 391.759 391.807 391.805 391.726 391.622 391.5 391.483 391.552 391.62 391.577 391.398 391.262 391.354 391.47 391.221 390.841 390.856 390.879 390.81 391.462 391.402 391.579 391.698 391.732 391.723 391.696 391.669 391.649 391.631 391.505 391.274 391.304 391.267 391.08 390.913 390.809 390.768 390.76 390.841 390.939 390.986 390.989 390.982 390.958 390.872 390.527 390.463 390.46 390.46 390.641 391.042 391.07 391.07 391.07 391.07 391.06 391.036 391.007 390.979 390.961 390.958 390.94 390.884 390.82 390.78 390.766 390.794 390.876 390.926 390.92 390.868 390.821 390.783 390.769 390.769 390.763 390.75 390.736 390.719 390.711 390.715 390.752 390.831 390.921 391.056 391.225 391.601 391.875 392.005 392.053 392.066 392.081 392.117 392.164 392.275 392.579 393.869 394.471 394.476 393.671 393.759 393.91 394.178 394.42 394.502 394.519 394.606 394.877 395.284 395.766 396.648 397.53 398.379 398.988 398.968 398.808 398.927 399.191 399.646 399.81 399.82 399.678 399.506 399.28 398.941 398.81 398.779 398.905 399.384 400.123 401.113 402.094 402.879 403.412 403.955 404.344 404.867 405.454 405.77 405.944 406.226 406.423 406.514 406.895 407.47 407.586 407.225 406.479 405.662 405.089 404.574 404.511 404.735 405.217 405.954 406.786 407.413 407.412 407.263 407.262 407.048 406.803 406.419 406.172 405.985 405.684 405.283 404.619 403.778 402.73 401.924 401.736 401.945 402.005 401.941 401.807 401.674 401.709 401.469 401.076 400.839 400.777 400.752 400.829 401.126 401.709 402.601 403.501 404.225 404.71 404.971 405.169 405.44 405.787 406.532 407.723 408.497 408.648 408.805 408.966 408.741 407.921 407.204 406.828 406.702 406.599 406.544 406.423 406.258 406.117 406.042 406.023 405.891 405.709 405.724 405.637 405.466 405.397 405.137 404.824 404.737 404.587 404.4 404.301 404.327 404.453 404.525 404.662 404.907 405.142 405.242 405.338 405.465 405.642 405.831 406.11 406.281 406.281 406.644 406.771 406.583 406.44 406.988 407.425 407.981 408.657 409.262 409.559 409.899 410.28 410.691 411.068 411.43 411.918 412.641 412.914 413.166 413.344 413.157 412.873 412.561 412.141 411.645 411.211 410.763 410.42 410.021 409.701 409.871 410.067 410.088 410.052 409.977 409.806 409.537 409.228 408.982 409.021 409.226 409.352 409.44 409.577 409.841 410.092 410.2 410.225 410.318 410.491 410.794 411.068 411.215 411.33 411.406 411.251 411.154 411.753 412.546 412.178 412.352 413.037 413.386 413.754 414.161 414.485 414.96 415.616 415.762 416.061 416.446
393.374 393.545 393.542 393.544 393.534 393.439 393.247 393.119 393.067 393.049 392.985 392.869 392.762 392.762 392.801 392.68 392.569 392.534 392.507 392.479 392.457 392.442 392.435 392.431 392.409 392.4 392.4 392.406 392.399 392.386 392.361 392.338 392.33 392.33 392.325 392.31 392.298 392.293 392.25 392.217 392.214 392.226 392.248 392.259 392.249 392.237 392.22 392.18 392.169 392.13 392.094 392.027 391.991 391.978 391.986 391.996 391.977 391.954 391.886 391.821 391.634 391.696 391.795 391.877 391.872 391.849 391.873 391.8 391.85 391.837 391.683 391.782 391.694 391.778 391.712 391.632 391.598 391.69 391.622 391.499 391.489 391.561 391.623 391.548 391.356 391.218 391.3 391.388 391.185 391.104 390.86 390.878 391.055 391.427 391.491 391.675 391.726 391.729 391.72 391.715 391.705 391.684 391.629 391.395 391.268 391.344 391.244 391.065 390.897 390.792 390.757 390.75 390.82 390.918 390.984 390.988 390.98 390.872 390.581 390.46 390.46 390.46 390.46 390.499 390.892 391.07 391.07 391.07 391.07 391.062 391.039 391.01 390.982 390.966 390.96 390.95 390.908 390.845 390.788 390.766 390.793 390.871 390.922 390.919 390.867 390.811 390.766 390.749 390.754 390.758 390.753 390.736 390.719 390.714 390.745 390.82 390.909 390.979 391.053 391.185 391.584 391.823 391.921 391.96 391.989 392.03 392.086 392.129 392.196 392.351 393.129 394.246 394.602 393.732 393.723 393.809 394.108 394.398 394.472 394.453 394.543 394.956 395.582 396.166 397.053 397.985 398.907 399.48 399.562 399.568 399.717 400.008 400.451 400.656 400.739 400.672 400.431 400.018 399.523 399.378 399.367 399.423 399.593 400.043 400.724 401.399 402.125 402.673 403.193 403.533 404.091 404.76 405.111 405.246 405.501 405.872 406.402 407.321 408.217 408.373 408.098 407.379 406.34 405.522 404.596 404.076 403.988 404.267 404.8 405.62 406.506 406.775 406.776 406.3 406.004 406.111 405.882 405.656 405.471 405.418 405.202 404.721 403.833 402.905 402.068 401.877 400.778 401.599 401.762 401.815 401.815 401.766 401.453 400.943 400.728 400.698 400.692 400.788 401.11 401.752 402.702 403.653 404.407 405.021 405.411 405.854 406.181 406.518 407.416 407.879 408.003 408.309 408.532 408.651 408.298 407.531 406.806 406.362 406.073 405.909 405.804 405.618 405.405 405.213 405.115 405.053 404.946 404.818 405.079 405.422 405.096 405.045 404.903 404.639 404.437 404.375 404.372 404.296 404.263 404.273 404.323 404.397 404.591 404.815 404.964 405.146 405.414 405.652 405.886 406.097 406.126 406.023 406.018 406.127 406.242 406.53 406.855 407.034 407.45 408.11 408.704 408.99 409.322 409.685 410.06 410.399 410.756 411.382 412.178 412.323 412.598 412.673 412.465 412.218 411.949 411.633 411.216 410.89 410.549 410.296 410.004 409.744 409.459 409.316 409.308 409.357 409.425 409.307 409.072 408.831 408.739 408.83 409.104 409.343 409.436 409.597 409.914 410.098 410.167 410.236 410.34 410.506 410.8 411.008 411.113 411.193 411.224 411.023 411.109 412.032 412.164 412.356 412.867 413.209 413.61 413.977 414.357 414.658 415.078 415.711 416.155 416.3 416.666
393.413 393.545 393.547 393.56 393.563 393.473 393.261 393.059 392.944 392.91 392.885 392.812 392.739 392.725 392.706 392.618 392.586 392.559 392.534 392.505 392.477 392.46 392.45 392.43 392.406 392.398 392.4 392.406 392.404 392.39 392.361 392.338 392.33 392.33 392.325 392.304 392.279 392.268 392.286 392.258 392.223 392.219 392.227 392.24 392.248 392.249 392.246 392.254 392.261 392.247 392.219 392.185 392.153 392.134 392.127 392.142 392.145 392.104 392.061 392.037 391.766 391.579 391.831 391.839 391.845 391.829 391.885 391.835 391.923 391.872 391.693 391.798 391.666 391.787 391.63 391.194 391.216 391.666 391.643 391.529 391.516 391.55 391.555 391.365 391.172 391.141 391.148 391.084 390.884 390.862 390.904 391.036 390.988 391.416 391.493 391.695 391.725 391.707 391.713 391.735 391.742 391.711 391.589 391.331 391.354 391.358 391.196 391.038 390.874 390.781 390.754 390.745 390.801 390.903 390.979 390.99 390.99 390.875 390.556 390.46 390.46 390.46 390.46 390.463 390.785 391.008 391.038 391.069 391.07 391.062 391.039 391.01 390.984 390.967 390.961 390.954 390.914 390.844 390.781 390.764 390.788 390.862 390.915 390.909 390.84 390.765 390.707 390.692 390.723 390.756 390.754 390.736 390.72 390.731 390.809 390.908 390.988 390.99 390.995 391.108 391.555 391.79 391.839 391.869 391.934 392.006 392.073 392.11 392.151 392.229 392.435 393.774 394.484 394.541 393.806 393.798 394.069 394.38 394.461 394.457 394.601 395.162 395.943 396.556 397.388 398.264 399.178 399.896 400.237 400.315 400.457 400.724 401.204 401.612 401.873 401.856 401.476 400.86 400.302 400.23 400.265 400.181 400.066 400.122 400.331 400.722 401.361 401.889 402.443 402.83 403.287 403.88 404.341 404.69 405.196 405.874 406.935 408.134 408.954 409.122 408.977 408.343 407.079 406.057 404.795 403.897 403.536 403.486 403.783 404.734 405.794 406.365 406.369 405.715 405.641 405.661 405.374 405.061 404.889 404.968 404.868 404.446 403.761 402.98 402.127 401.471 398.654 399.55 400.442 401.199 401.401 401.584 401.631 401.016 400.511 400.525 400.596 400.816 401.25 401.79 402.788 403.755 404.518 405.273 405.829 406.449 406.753 406.924 406.832 407.01 407.338 407.733 407.973 408.057 407.713 407.02 406.361 405.829 405.498 405.333 405.238 405.111 404.934 404.687 404.409 404.3 404.252 404.238 404.606 405.133 404.649 404.58 404.464 404.278 404.136 404.223 404.329 404.32 404.231 404.132 404.107 404.191 404.261 404.23 404.446 404.87 405.277 405.687 405.796 405.77 405.735 405.704 405.739 405.68 405.907 406.449 406.608 406.732 407.071 407.623 408.126 408.382 408.695 409.043 409.384 409.703 410.08 410.813 411.4 411.721 411.979 411.98 411.784 411.551 411.311 411.034 410.704 410.48 410.319 410.191 409.819 409.689 409.321 408.773 408.606 408.737 408.857 408.819 408.747 408.671 408.633 408.848 409.291 409.535 409.495 409.644 410.013 410.108 410.16 410.265 410.401 410.564 410.807 410.99 411.071 411.118 411.123 411.078 411.414 412.073 412.645 412.984 413.114 413.525 413.925 414.33 414.746 415.032 415.402 415.878 416.751 416.674 416.758
393.442 393.544 393.55 393.572 393.579 393.494 393.285 393.046 392.897 392.859 392.826 392.784 392.744 392.715 392.664 392.627 392.603 392.575 392.552 392.525 392.496 392.476 392.461 392.439 392.414 392.411 392.412 392.418 392.409 392.388 392.361 392.338 392.33 392.33 392.325 392.308 392.282 392.266 392.291 392.27 392.229 392.213 392.21 392.21 392.213 392.209 392.207 392.236 392.275 392.281 392.262 392.229 392.192 392.166 392.141 392.144 392.14 392.093 392.041 392.018 391.819 391.566 391.772 391.834 391.707 391.699 391.902 391.866 391.952 391.867 391.709 391.811 391.642 391.748 391.741 391.693 391.717 391.734 391.654 391.538 391.477 391.372 391.286 390.834 390.677 390.907 390.855 390.895 391.102 391.06 390.872 390.857 390.99 391.421 391.471 391.61 391.686 391.696 391.729 391.769 391.777 391.703 391.515 391.354 391.405 391.295 391.146 391.012 390.869 390.792 390.768 390.75 390.799 390.91 390.997 391.023 391.024 390.959 390.773 390.463 390.46 390.46 390.46 390.46 390.46 390.506 390.657 390.966 391.006 391.012 391 390.975 390.949 390.94 390.942 390.92 390.867 390.805 390.766 390.762 390.785 390.855 390.906 390.885 390.793 390.701 390.639 390.642 390.706 390.751 390.754 390.736 390.723 390.754 390.844 390.945 390.996 390.935 390.904 391 391.449 391.732 391.795 391.849 391.932 392.004 392.064 392.11 392.177 392.258 392.399 393.298 394.21 394.858 394.09 393.88 394.03 394.319 394.481 394.59 394.839 395.53 396.393 397.003 397.764 398.562 399.563 400.53 401.018 400.79 400.797 401.34 402.041 402.71 403.028 402.855 402.365 401.726 401.203 401.122 401.01 400.79 400.562 400.365 400.322 400.513 400.91 401.306 401.89 402.329 402.776 403.367 403.961 404.555 405.404 406.319 407.592 408.829 409.649 410.013 409.966 409.333 407.884 406.72 405.24 404.067 403.438 403.123 403.239 404.06 405.161 405.829 405.862 405.64 405.617 405.296 404.773 404.319 404.207 404.313 404.331 404.012 403.49 402.825 402.038 401.066 398.785 398.491 398.939 400.752 401.054 400.952 400.691 400.891 400.765 400.777 400.962 401.372 401.873 402.308 403.188 403.93 404.625 405.447 406.282 406.948 406.782 406.271 406.104 406.269 406.589 406.968 407.173 407.132 406.932 406.453 405.874 405.346 404.95 404.812 404.749 404.844 404.765 404.364 403.954 403.749 403.683 403.718 404.079 404.773 404.103 404.027 403.949 403.878 403.896 404.145 404.238 404.077 403.822 404.07 404.475 404.784 404.767 404.56 404.514 404.557 404.566 405.267 404.951 404.824 405.246 405.434 405.325 405.44 406.13 406.386 406.5 406.534 406.716 407.157 407.545 407.766 408.054 408.37 408.683 409.009 409.448 410.034 410.651 411.041 411.269 411.265 411.111 410.887 410.646 410.387 410.142 409.999 409.951 409.682 409.279 409.537 409.237 408.455 408.419 408.613 408.726 408.699 408.646 408.648 408.825 409.241 409.626 409.669 409.497 409.646 409.965 410.031 410.119 410.254 410.42 410.576 410.779 410.885 410.94 411.005 411.073 411.344 411.913 412.401 412.922 413.252 413.569 413.955 414.329 414.785 415.242 415.568 415.95 416.334 417.092 417.26 417.011
393.584 393.561 393.566 393.586 393.582 393.501 393.298 393.052 392.927 392.907 392.881 392.842 392.8 392.752 392.666 392.613 392.588 392.571 392.565 392.539 392.513 392.502 392.494 392.48 392.467 392.457 392.46 392.454 392.419 392.391 392.359 392.335 392.33 392.33 392.329 392.324 392.307 392.288 392.278 392.259 392.229 392.215 392.205 392.196 392.185 392.17 392.157 392.192 392.257 392.297 392.299 392.264 392.229 392.198 392.159 392.138 392.114 392.057 392.002 391.984 391.92 391.503 391.573 391.508 391.213 391.222 391.653 391.662 391.66 391.612 391.49 391.547 391.571 391.775 391.817 391.844 391.828 391.73 391.613 391.43 390.994 390.22 390.291 390.98 391.094 390.882 390.846 391.244 391.066 390.862 390.923 391.13 391.324 391.531 391.535 391.477 391.615 391.704 391.763 391.798 391.774 391.659 391.544 391.458 391.4 391.279 391.15 391.006 390.885 390.816 390.786 390.764 390.813 390.944 391.044 391.084 391.086 391.072 390.982 390.656 390.461 390.46 390.46 390.46 390.46 390.46 390.46 390.46 390.46 390.473 390.492 390.497 390.492 390.58 390.816 390.838 390.798 390.769 390.76 390.762 390.784 390.851 390.898 390.874 390.774 390.666 390.602 390.623 390.696 390.746 390.754 390.736 390.725 390.753 390.836 390.929 390.966 390.883 390.807 390.842 391.209 391.569 391.756 391.867 391.936 391.996 392.065 392.144 392.285 392.444 392.585 392.934 393.939 394.685 394.776 394.156 393.891 394.106 394.4 394.66 395.082 395.963 396.937 397.508 398.157 398.908 400.015 401.121 401.748 401.157 401.106 402.256 403.236 403.976 404.161 403.748 403.096 402.395 402.041 401.864 401.574 401.343 401.153 400.976 400.929 400.955 401.043 401.257 401.649 402.048 402.573 403.237 403.96 404.671 405.692 406.689 408.058 409.386 410.438 410.964 410.922 410.159 408.697 407.517 405.875 404.378 403.367 402.806 402.603 403.159 404.302 405.214 405.518 405.558 405.25 404.774 404.189 403.58 403.536 403.66 403.615 403.348 402.939 402.412 401.906 400.107 398.919 398.504 398.661 400.125 400.513 400.551 400.241 400.027 400.068 400.325 400.549 400.954 401.521 402.224 403.337 404.32 404.917 405.842 406.666 406.601 406.168 405.701 405.512 405.599 405.802 406.087 406.191 406.01 405.79 405.548 405.271 404.752 404.373 404.282 404.301 404.517 404.525 404.1 403.641 403.447 403.325 403.279 403.44 404.358 403.798 403.508 403.344 403.48 403.644 403.829 403.865 403.604 404.212 404.847 405.123 405.211 405.116 405.013 404.995 405.025 404.855 404.796 404.788 404.824 404.935 405.089 405.099 405.646 406.074 406.332 406.456 406.386 406.434 406.68 406.993 407.2 407.483 407.778 408.069 408.427 408.763 409.419 410.027 410.362 410.57 410.592 410.445 410.175 409.849 409.57 409.443 409.426 409.297 409.373 409.203 408.908 408.604 408.27 408.442 408.698 408.94 408.897 408.767 408.815 409.2 409.556 409.673 409.65 409.57 409.664 409.832 409.868 409.978 410.186 410.416 410.569 410.646 410.64 410.719 410.825 411.038 411.624 412.41 412.878 413.354 413.777 414.153 414.471 414.842 415.305 415.802 416.166 416.551 416.852 417.184 418.05 417.712
393.61 393.583 393.583 393.589 393.583 393.517 393.317 393.07 392.958 392.952 392.936 392.903 392.838 392.763 392.656 392.588 392.569 392.569 392.566 392.543 392.532 392.537 392.54 392.533 392.52 392.515 392.511 392.488 392.447 392.408 392.359 392.331 392.33 392.33 392.332 392.33 392.324 392.309 392.268 392.254 392.246 392.23 392.217 392.204 392.179 392.153 392.126 392.151 392.222 392.296 392.312 392.256 392.212 392.181 392.145 392.127 392.105 392.037 391.979 391.96 391.987 391.899 391.711 391.721 391.732 391.674 391.067 391.233 391.596 391.678 391.719 391.64 391.672 391.846 391.819 391.827 391.819 391.729 391.613 391.421 390.857 391.03 391.408 391.588 391.345 390.78 390.631 390.923 391.088 391.26 391.181 391.237 391.406 391.554 391.591 391.48 391.561 391.727 391.791 391.796 391.747 391.624 391.536 391.449 391.386 391.303 391.162 391.012 390.901 390.83 390.795 390.767 390.822 390.971 391.09 391.147 391.157 391.146 391.112 390.995 390.665 390.473 390.46 390.46 390.46 390.46 390.46 390.46 390.46 390.46 390.46 390.46 390.46 390.485 390.731 390.78 390.765 390.76 390.76 390.762 390.779 390.84 390.889 390.878 390.781 390.677 390.622 390.638 390.697 390.746 390.754 390.735 390.723 390.744 390.826 390.912 390.939 390.822 390.695 390.668 390.931 391.333 391.694 391.866 391.93 391.994 392.085 392.191 392.41 392.658 392.817 393.117 393.86 394.466 395.088 394.359 393.609 393.793 394.175 394.636 395.372 396.445 397.545 398.051 398.573 399.288 400.392 401.571 402.439 401.539 401.432 403.455 404.469 405.105 405.237 404.689 403.774 402.995 402.993 402.785 402.399 402.163 402.028 401.896 401.836 401.735 401.6 401.574 401.663 401.967 402.513 403.271 404.107 404.874 405.961 406.993 408.323 409.552 410.792 411.48 411.489 410.679 409.352 408.258 406.543 404.715 403.295 402.479 402.083 402.367 403.344 404.393 404.806 404.852 404.607 404.226 403.603 402.88 402.826 402.847 402.637 402.36 402.065 401.654 401.555 399.486 399.116 398.971 399.141 399.665 400.008 400.215 400.013 399.838 399.865 400.11 400.339 400.792 401.427 402.234 403.34 404.695 405.311 405.791 406.027 406.021 405.652 405.213 404.993 404.979 405.109 405.282 405.273 405.052 404.87 404.772 404.563 404.091 403.87 403.825 403.893 404.218 404.323 403.856 403.392 403.255 403.118 402.967 403.082 404.193 403.71 403.123 403.276 403.206 403.272 403.895 404.251 404.728 405.265 405.456 405.539 405.548 405.398 405.284 405.174 404.996 404.885 404.986 405.081 405.07 405.244 405.324 405.154 405.43 405.841 406.148 406.346 406.246 406.223 406.387 406.585 406.749 407.008 407.263 407.531 408.05 408.4 408.862 409.364 409.679 409.938 410.003 409.853 409.536 409.056 408.685 408.713 408.825 408.574 408.295 408.298 408.342 408.213 408.15 408.396 408.697 408.985 409.006 408.875 408.996 409.379 409.618 409.779 409.995 409.96 409.914 409.823 409.657 409.77 410.087 410.503 410.681 410.672 410.663 410.779 410.958 411.348 412.235 413.184 413.665 414.123 414.542 414.896 415.178 415.523 415.98 416.47 416.805 417.121 417.34 417.596 418.441 418.641
393.616 393.6 393.597 393.595 393.588 393.538 393.344 393.096 392.978 392.977 392.975 392.94 392.844 392.756 392.645 392.575 392.565 392.572 392.57 392.563 392.571 392.576 392.579 392.579 392.574 392.569 392.548 392.518 392.477 392.436 392.379 392.339 392.338 392.34 392.342 392.338 392.337 392.326 392.275 392.272 392.276 392.262 392.24 392.217 392.186 392.153 392.107 392.116 392.193 392.29 392.298 392.214 392.149 392.115 392.104 392.136 392.131 392.054 391.984 391.937 391.911 391.874 391.862 391.901 391.867 391.824 391.767 391.819 391.913 391.884 391.763 391.644 391.819 391.802 391.769 391.798 391.813 391.735 391.615 391.483 391.495 391.572 391.63 391.569 391.349 391.043 390.801 391.27 391.508 391.4 391.22 391.237 391.392 391.532 391.547 391.471 391.507 391.741 391.79 391.779 391.735 391.644 391.577 391.512 391.468 391.38 391.182 391.005 390.895 390.824 390.79 390.77 390.836 390.992 391.131 391.213 391.226 391.219 391.194 391.13 391.021 390.814 390.492 390.46 390.46 390.46 390.46 390.461 390.46 390.46 390.46 390.46 390.46 390.468 390.687 390.781 390.764 390.76 390.76 390.761 390.774 390.819 390.865 390.87 390.809 390.73 390.677 390.68 390.72 390.75 390.754 390.735 390.721 390.742 390.825 390.901 390.91 390.75 390.588 390.529 390.741 391.169 391.639 391.863 391.943 392.018 392.117 392.219 392.472 392.801 393.01 393.202 393.729 394.395 394.888 394.703 393.574 393.537 393.921 394.642 395.712 396.907 397.987 398.436 398.962 399.666 400.68 401.942 403.097 402.771 402.93 404.63 405.398 405.947 406.148 405.745 404.872 404.143 404.21 404.068 403.599 403.192 402.998 402.836 402.703 402.479 402.174 401.963 401.859 402.062 402.597 403.452 404.364 405.215 406.331 407.302 408.389 409.251 410.445 411.322 411.423 410.726 409.553 408.539 406.796 404.783 403.19 402.285 401.758 401.659 402.29 403.221 403.733 404.002 403.905 403.525 402.845 402.091 402.101 402.063 401.78 401.431 401.254 401.05 400.651 399.864 399.431 399.046 399.1 399.524 399.769 399.905 399.879 399.811 399.859 400.05 400.257 400.718 401.414 402.24 403.258 404.261 404.973 405.426 405.586 405.46 405.087 404.691 404.421 404.338 404.457 404.618 404.6 404.358 404.181 404.068 403.866 403.574 403.464 403.434 403.526 403.869 403.984 403.532 403.18 403.175 403.058 402.947 403.046 403.796 403.33 403.601 403.866 403.813 403.889 404.46 404.826 405.193 405.495 405.67 405.801 405.825 405.669 405.468 405.284 405.098 405.122 405.45 405.622 405.543 405.476 405.467 405.41 405.398 405.511 405.559 406.103 406.13 406.231 406.401 406.549 406.654 406.767 406.865 407.146 407.787 407.97 408.353 408.737 408.997 409.28 409.417 409.274 408.921 408.425 408.094 408.197 408.32 408.037 407.828 407.943 408.086 408.068 408.115 408.269 408.47 408.745 408.831 408.846 409.11 409.5 409.847 410.368 410.677 410.72 410.444 410.086 409.95 410.156 410.584 411.075 411.206 411.149 411.131 411.27 411.499 412.014 413.045 414.097 414.62 415.058 415.455 415.78 416.026 416.285 416.631 417.036 417.311 417.545 417.723 417.988 418.426 419.752
393.633 393.623 393.618 393.611 393.585 393.517 393.323 393.088 392.959 392.976 392.962 392.915 392.814 392.727 392.625 392.582 392.583 392.589 392.59 392.598 392.607 392.605 392.607 392.61 392.611 392.597 392.57 392.54 392.5 392.464 392.41 392.37 392.366 392.366 392.366 392.355 392.359 392.333 392.286 392.298 392.316 392.298 392.268 392.23 392.187 392.142 392.085 392.091 392.178 392.29 392.293 392.198 392.119 392.092 392.131 392.189 392.171 392.084 391.998 391.929 391.873 391.843 391.858 391.943 391.884 391.835 391.885 391.92 391.907 391.874 391.775 391.696 391.828 391.677 391.733 391.787 391.817 391.744 391.622 391.485 391.489 391.55 391.596 391.534 391.336 391.147 391.161 391.509 391.596 391.42 391.232 391.236 391.387 391.514 391.527 391.47 391.507 391.717 391.741 391.752 391.753 391.727 391.693 391.637 391.595 391.438 391.184 391.01 390.88 390.813 390.792 390.803 390.886 391.04 391.188 391.274 391.283 391.282 391.26 391.21 391.107 390.661 390.461 390.46 390.46 390.46 390.564 390.728 390.502 390.46 390.46 390.46 390.46 390.46 390.547 390.78 390.775 390.761 390.76 390.761 390.766 390.786 390.816 390.836 390.811 390.761 390.727 390.732 390.75 390.762 390.755 390.735 390.721 390.742 390.824 390.901 390.895 390.712 390.524 390.455 390.663 391.1 391.61 391.885 391.98 392.043 392.113 392.191 392.441 392.815 393.061 393.166 393.545 394.211 394.687 394.999 393.807 393.404 393.792 394.773 396.034 397.193 398.132 398.666 399.322 400.057 400.966 402.242 403.665 404.703 405.292 405.625 405.956 406.374 406.787 406.957 406.55 405.895 405.708 405.65 405.06 404.356 403.959 403.695 403.467 403.142 402.697 402.414 402.286 402.349 402.817 403.751 404.724 405.697 406.791 407.608 408.447 408.942 409.86 410.756 410.822 410.27 409.268 408.327 406.647 404.737 403.209 402.162 401.352 400.988 401.378 402.188 402.781 403.193 403.028 402.467 401.878 401.261 401.343 401.373 401.194 400.944 400.87 399.808 398.941 399.008 398.869 398.722 398.75 398.887 398.994 399.265 399.6 399.908 400.012 400.162 400.286 400.645 401.268 402.035 402.967 403.864 404.66 405.126 405.133 404.835 404.413 404.001 403.723 403.672 403.793 403.944 403.961 403.825 403.655 403.491 403.282 403.15 403.104 403.099 403.18 403.457 403.585 403.225 403.067 403.227 403.145 403.037 402.861 403.717 404.208 404.068 404.147 404.13 404.256 404.59 404.809 405.127 405.435 405.707 405.943 406.062 405.936 405.654 405.518 405.465 405.61 405.993 406.287 406.372 406.223 405.881 405.665 405.701 405.861 405.734 405.854 406.205 406.405 406.581 406.687 406.686 406.639 406.702 407.513 407.463 407.641 407.898 408.118 408.288 408.45 408.556 408.363 408.061 407.785 407.662 407.765 407.902 407.825 407.74 407.884 408.047 408.068 408.116 408.179 408.313 408.531 408.697 408.918 409.306 409.781 410.256 410.728 411.056 411.363 411.381 411.163 411.129 411.364 411.797 412.176 412.387 412.499 412.528 412.644 412.861 413.339 414.222 415.131 415.653 416.067 416.44 416.731 416.871 417.004 417.249 417.536 417.729 417.906 418.092 418.464 418.988 420.094
393.663 393.652 393.642 393.615 393.509 393.401 393.254 393.055 392.96 392.929 392.902 392.854 392.764 392.682 392.621 392.614 392.618 392.618 392.62 392.628 392.63 392.618 392.613 392.618 392.619 392.601 392.573 392.544 392.513 392.488 392.444 392.404 392.397 392.396 392.385 392.372 392.355 392.292 392.283 392.311 392.332 392.32 392.285 392.239 392.184 392.137 392.086 392.087 392.174 392.287 392.303 392.23 392.16 392.143 392.199 392.246 392.22 392.13 392.033 391.951 391.888 391.834 391.849 391.929 391.86 391.83 391.887 391.918 391.891 391.842 391.79 391.757 391.702 391.55 391.76 391.805 391.833 391.754 391.632 391.499 391.485 391.534 391.577 391.509 391.318 391.161 391.243 391.507 391.605 391.439 391.242 391.241 391.4 391.519 391.532 391.476 391.472 391.493 391.49 391.61 391.759 391.789 391.781 391.747 391.666 391.384 391.18 391.052 390.897 390.844 390.851 390.891 390.973 391.112 391.244 391.327 391.339 391.336 391.318 391.267 391.095 390.488 390.46 390.46 390.46 390.467 390.72 391.066 390.85 390.599 390.528 390.46 390.46 390.506 390.714 390.831 390.786 390.763 390.76 390.76 390.761 390.765 390.771 390.777 390.771 390.763 390.768 390.771 390.769 390.767 390.76 390.736 390.721 390.742 390.827 390.909 390.899 390.71 390.523 390.449 390.634 391.078 391.595 391.874 391.948 391.966 391.993 392.068 392.316 392.662 392.913 393.012 393.277 393.799 394.519 394.94 394.737 393.802 393.984 395.093 396.323 397.402 398.372 399.02 399.744 400.474 401.44 402.809 404.381 405.309 405.67 405.81 405.886 406.248 407.202 408.121 408.282 407.908 407.671 407.496 406.629 405.702 405.102 404.687 404.24 403.748 403.277 403.139 402.953 402.671 402.82 404.015 405.18 406.254 407.176 407.714 408.277 408.607 409.185 410.007 409.96 409.468 408.702 407.901 406.456 404.753 402.388 402.125 401.023 400.479 400.673 401.269 401.784 402.159 401.721 401.09 400.798 400.529 400.785 400.816 400.502 399.817 399.448 398.746 398.939 398.623 398.633 398.625 398.513 398.661 398.992 398.853 399.039 400.399 400.624 400.651 400.505 400.495 400.933 401.638 402.496 403.314 404.073 404.458 404.417 404.095 403.699 403.307 403.087 403.048 403.104 403.211 403.279 403.222 403.107 402.974 402.794 402.702 402.666 402.748 402.857 403.11 403.231 402.99 402.959 403.226 403.19 402.982 402.986 403.844 404.213 404.177 404.215 404.257 404.396 404.576 404.763 405.075 405.346 405.622 405.904 406.137 406.104 405.854 405.76 405.789 406.055 406.522 406.922 407.106 407.001 406.623 406.343 406.306 406.283 406.13 405.623 406.131 406.441 406.59 406.595 406.543 406.505 406.972 407.447 407.224 407.438 407.454 407.488 407.553 407.622 407.571 407.394 407.268 407.267 407.307 407.431 407.605 407.656 407.713 407.897 408.052 408.077 408.089 408.204 408.379 408.628 408.844 409.109 409.553 410.083 410.537 410.924 411.27 411.855 412.327 412.572 412.53 412.745 413.148 413.582 413.971 414.393 414.695 414.87 414.975 415.271 415.818 416.446 416.783 417.18 417.619 417.945 417.928 417.904 417.952 418.135 418.269 418.338 418.455 418.887 419.521 420.242
393.693 393.681 393.648 393.544 393.38 393.268 393.151 393.022 392.918 392.874 392.835 392.793 392.718 392.667 392.649 392.646 392.646 392.648 392.65 392.654 392.642 392.628 392.623 392.623 392.622 392.609 392.582 392.551 392.521 392.499 392.463 392.431 392.424 392.424 392.421 392.399 392.314 392.246 392.262 392.299 392.326 392.314 392.282 392.244 392.195 392.159 392.121 392.118 392.182 392.278 392.317 392.276 392.235 392.23 392.271 392.299 392.271 392.175 392.057 391.945 391.882 391.81 391.855 391.895 391.841 391.825 391.89 391.949 391.914 391.729 391.7 391.869 391.784 391.722 391.807 391.769 391.849 391.767 391.649 391.512 391.493 391.54 391.583 391.513 391.324 391.17 391.246 391.503 391.611 391.452 391.252 391.256 391.426 391.54 391.565 391.578 391.599 391.595 391.52 391.48 391.713 391.779 391.782 391.764 391.642 391.363 391.261 391.137 390.973 390.927 390.945 390.988 391.066 391.191 391.306 391.378 391.389 391.382 391.355 391.277 390.998 390.46 390.46 390.46 390.46 390.461 390.645 391.019 391.069 390.961 390.916 390.832 390.82 390.822 390.909 390.873 390.793 390.763 390.76 390.76 390.76 390.759 390.757 390.757 390.767 390.794 390.819 390.81 390.789 390.774 390.763 390.74 390.721 390.743 390.829 390.914 390.91 390.733 390.55 390.468 390.619 391.047 391.493 391.74 391.789 391.782 391.81 391.921 392.171 392.46 392.692 392.841 393.085 393.403 394.137 394.587 395.288 394.287 394.386 395.441 396.547 397.636 398.715 399.506 400.409 401.488 402.757 404.116 405.104 405.327 405.41 405.443 405.526 406.182 407.695 409.038 409.682 409.837 409.738 409.311 408.265 407.311 406.643 406.044 405.373 404.724 404.418 404.296 403.774 402.906 402.746 403.406 405.523 406.565 407.238 407.582 407.877 407.988 408.488 409.221 409.084 408.574 408.04 407.451 406.255 402.766 400.794 402.089 400.799 400.137 400.11 400.426 400.758 400.942 400.445 400.18 400.216 400.366 399.908 399.526 399.447 399.269 399.18 399.137 399.061 398.667 399.083 399.134 399.245 399.514 399.698 399.853 400.493 400.228 401.202 400.799 400.49 400.393 400.673 401.213 401.933 402.735 403.429 403.721 403.637 403.404 403.155 402.871 402.654 402.541 402.511 402.514 402.419 402.145 402.353 402.452 402.338 402.3 401.988 402.269 402.518 402.781 402.8 402.6 402.794 403.21 403.302 403.083 403.714 404.096 404.267 404.254 404.179 404.188 404.373 404.553 404.756 405.061 405.305 405.518 405.87 406.216 406.236 406.035 406.018 406.23 406.614 407.105 407.509 407.703 407.64 407.408 407.251 407.056 406.711 406.324 405.997 405.698 406 406.198 406.231 406.245 406.388 407.134 407.037 407.09 407.181 407.11 406.969 406.921 407.003 407.038 406.967 406.954 407.14 407.252 407.348 407.391 407.555 407.8 408.029 408.149 408.25 408.334 408.507 408.688 408.923 409.118 409.375 409.824 410.412 410.873 411.203 411.543 412.179 412.931 413.424 413.486 413.768 414.206 414.8 415.366 416.168 416.721 416.888 416.977 417.223 417.535 417.83 418.135 418.74 419.353 419.655 419.479 419.273 419.147 419.097 419.026 418.923 418.98 419.346 419.916 420.622
393.712 393.695 393.624 393.469 393.285 393.167 393.047 392.948 392.884 392.832 392.788 392.755 392.714 392.684 392.671 392.661 392.661 392.668 392.674 392.673 392.655 392.64 392.633 392.633 392.632 392.618 392.587 392.554 392.523 392.5 392.469 392.446 392.439 392.439 392.432 392.388 392.284 392.218 392.233 392.272 392.298 392.289 392.269 392.245 392.218 392.202 392.179 392.174 392.204 392.269 392.301 392.293 392.295 392.305 392.333 392.351 392.321 392.202 392.048 391.873 391.865 391.874 391.862 391.865 391.82 391.823 391.904 391.939 391.888 391.753 391.674 391.888 391.886 391.874 391.758 391.665 391.858 391.784 391.669 391.538 391.509 391.557 391.596 391.529 391.34 391.181 391.244 391.498 391.626 391.481 391.27 391.264 391.438 391.562 391.613 391.648 391.695 391.711 391.574 391.49 391.683 391.718 391.713 391.679 391.547 391.394 391.378 391.245 391.074 391.011 391.015 391.043 391.115 391.238 391.347 391.41 391.414 391.398 391.363 391.227 390.66 390.46 390.46 390.46 390.46 390.46 390.46 390.672 391.064 391.07 391.066 391.052 391.027 390.987 390.95 390.874 390.795 390.763 390.76 390.76 390.76 390.76 390.76 390.768 390.801 390.851 390.879 390.864 390.821 390.786 390.765 390.743 390.726 390.743 390.831 390.922 390.929 390.766 390.578 390.487 390.574 390.897 391.266 391.532 391.588 391.583 391.649 391.804 392.056 392.291 392.502 392.705 392.956 393.214 393.762 394.324 395.194 395.152 394.86 395.562 396.597 397.774 398.998 400.001 401.562 403.394 404.674 405.334 405.346 405.081 405.091 405.158 405.484 406.406 408.039 409.48 410.485 411.09 411.214 410.797 409.911 409.121 408.459 407.793 407.033 406.271 405.768 405.418 404.067 402.846 402.77 402.901 404.789 406.578 407.211 407.428 407.296 407.298 408.118 408.741 408.506 407.978 407.486 407.008 405.993 404.139 400.294 401.231 400.653 400.005 399.754 399.975 399.973 400.018 400.042 400.33 400.23 399.37 399.05 399.076 399.126 399.141 399.097 399.078 399.032 398.779 399.221 399.184 399.276 399.567 399.729 400.109 400.693 400.176 401.223 400.802 400.488 400.357 400.555 401.045 401.933 402.722 403.072 403.061 402.896 402.781 402.745 402.58 402.359 402.162 402.016 401.965 401.782 401.55 401.923 401.954 402.024 402.018 402.181 402.223 402.212 402.384 402.282 402.461 402.418 403.086 403.123 403.436 404.14 404.377 404.424 404.277 404.156 404.184 404.352 404.527 404.735 405.069 405.316 405.592 405.988 406.343 406.422 406.307 406.424 406.777 407.216 407.749 408.163 408.334 408.339 408.368 408.216 407.9 407.322 406.635 406.264 406.127 405.607 405.142 405.435 405.865 406.753 406.688 406.548 406.74 406.901 406.848 406.689 406.696 406.806 406.876 406.842 406.869 407.123 407.321 407.382 407.423 407.694 408.014 408.233 408.323 408.483 408.682 408.931 409.123 409.361 409.576 409.878 410.361 410.894 411.244 411.54 411.867 412.607 413.413 413.948 414.207 414.585 415.155 415.875 416.557 417.525 418.267 418.64 418.884 419.128 419.366 419.721 420.128 420.742 421.242 421.396 421.22 421.009 420.671 420.323 420.078 419.863 419.815 420.038 420.489 421.011
393.715 393.701 393.649 393.481 393.278 393.147 393.02 392.934 392.898 392.859 392.83 392.807 392.77 392.727 392.687 392.665 392.663 392.675 392.695 392.695 392.674 392.654 392.644 392.643 392.642 392.629 392.599 392.567 392.534 392.509 392.475 392.45 392.44 392.44 392.437 392.402 392.304 392.242 392.217 392.248 392.27 392.269 392.261 392.251 392.241 392.234 392.223 392.218 392.232 392.276 392.314 392.335 392.362 392.383 392.4 392.399 392.349 392.216 392.026 391.805 391.843 391.896 391.907 391.876 391.793 391.792 391.863 391.902 391.884 391.862 391.871 391.893 391.877 391.857 391.704 391.712 391.844 391.805 391.703 391.575 391.534 391.578 391.614 391.541 391.349 391.19 391.256 391.527 391.677 391.536 391.295 391.262 391.428 391.579 391.655 391.689 391.706 391.676 391.493 391.54 391.641 391.64 391.626 391.586 391.481 391.478 391.484 391.323 391.137 391.042 391.025 391.031 391.109 391.24 391.354 391.416 391.418 391.398 391.337 391.097 390.535 390.46 390.466 390.461 390.46 390.46 390.46 390.563 391.061 391.07 391.064 391.045 391.02 390.986 390.95 390.873 390.795 390.764 390.76 390.76 390.76 390.76 390.764 390.787 390.838 390.894 390.928 390.901 390.836 390.784 390.765 390.745 390.728 390.745 390.838 390.935 390.952 390.797 390.61 390.498 390.492 390.709 391.033 391.318 391.388 391.392 391.518 391.711 391.969 392.177 392.378 392.59 392.829 393.065 393.272 393.812 394.905 395.464 395.035 395.487 396.576 397.892 399.171 400.274 402.468 404.696 405.623 405.64 405.282 404.987 405.015 405.18 405.632 406.619 408.196 409.655 410.942 411.863 412.153 411.843 411.21 410.658 410.1 409.487 408.58 407.565 406.718 406.148 405.216 404.019 403.11 403.679 405.741 406.626 407.039 406.988 406.6 406.881 407.927 408.423 408.134 407.549 406.887 406.343 405.281 404.124 400.766 400.202 400.595 400.056 399.921 399.776 399.614 399.681 400.179 400.048 398.926 398.721 398.771 398.831 398.91 399.03 399.051 399.098 399.073 398.838 399.236 399.194 399.257 399.426 399.6 400.051 400.784 400.789 400.871 400.704 400.499 400.389 400.506 400.776 401.687 402.402 402.603 402.536 402.415 402.369 402.351 402.296 402.083 401.554 401.428 401.718 401.672 401.506 401.539 401.685 401.821 401.977 402.237 402.328 402.33 402.317 402.39 402.699 402.875 402.783 403.106 403.931 404.379 404.676 404.732 404.514 404.319 404.349 404.432 404.535 404.741 405.11 405.442 405.757 406.146 406.46 406.586 406.656 406.894 407.319 407.833 408.404 408.843 409.025 409.14 409.289 409.199 408.841 408.152 407.206 406.728 406.354 405.204 405.09 405.099 405.389 406.603 406.3 406.29 406.485 406.715 406.727 406.677 406.693 406.785 406.847 406.864 406.941 407.234 407.451 407.524 407.6 407.881 408.205 408.414 408.526 408.789 409.234 409.687 409.694 409.826 410.155 410.579 410.994 411.322 411.581 411.903 412.304 413.183 413.936 414.456 414.823 415.458 416.186 416.937 417.639 418.71 419.698 420.274 420.635 420.971 421.363 421.832 422.136 422.441 422.753 422.893 422.848 422.685 422.22 421.749 421.44 421.131 420.968 421.037 421.331 421.722
393.724 393.713 393.686 393.531 393.325 393.187 393.066 393.046 393.016 392.986 392.961 392.948 392.899 392.83 392.746 392.698 392.674 392.693 392.724 392.721 392.697 392.674 392.658 392.655 392.655 392.647 392.618 392.593 392.571 392.544 392.499 392.47 392.46 392.458 392.451 392.407 392.351 392.303 392.207 392.217 392.246 392.254 392.256 392.251 392.248 392.24 392.224 392.21 392.225 392.3 392.376 392.411 392.44 392.453 392.448 392.424 392.361 392.236 392.066 391.852 391.71 391.756 391.854 391.872 391.821 391.735 391.734 391.812 391.848 391.859 391.864 391.824 391.763 391.738 391.622 391.751 391.834 391.832 391.74 391.619 391.565 391.599 391.626 391.543 391.35 391.198 391.282 391.58 391.75 391.609 391.336 391.26 391.405 391.578 391.68 391.742 391.731 391.65 391.482 391.545 391.568 391.557 391.546 391.534 391.487 391.515 391.494 391.34 391.127 391.013 390.991 390.999 391.086 391.225 391.348 391.415 391.416 391.387 391.228 390.559 390.46 390.621 390.841 390.788 390.698 390.635 390.543 390.793 391.065 391.07 391.062 391.04 391.014 390.986 390.949 390.874 390.8 390.764 390.76 390.76 390.76 390.761 390.767 390.793 390.845 390.913 390.948 390.903 390.825 390.78 390.764 390.745 390.728 390.748 390.848 390.948 390.973 390.827 390.638 390.511 390.456 390.622 390.879 391.127 391.221 391.264 391.451 391.665 391.932 392.141 392.319 392.491 392.707 392.92 393.059 393.383 394.525 395.553 395.273 395.394 396.542 397.869 399.129 400.212 402.464 404.776 405.639 405.528 405.191 404.98 405.087 405.27 405.738 406.809 408.485 410.099 411.549 412.433 412.63 412.367 411.943 411.578 411.192 410.606 409.656 408.599 407.65 407.004 406.48 406.1 405.787 405.995 406.383 406.556 406.603 406.305 405.872 406.357 407.46 408.026 407.804 407.222 406.337 405.545 404.45 403.587 401.477 400.498 400.683 400.158 399.208 398.887 398.827 399.108 398.986 398.617 398.499 398.511 398.528 398.54 398.602 398.794 399.015 399.105 398.749 398.836 399.155 399.168 399.267 399.402 399.477 399.795 400.063 400.237 400.355 400.412 400.495 400.353 400.28 400.311 401.41 402.148 402.304 402.282 402.299 402.276 402.237 402.173 401.957 401.302 401.6 401.621 401.635 401.695 401.755 401.785 401.812 402.028 402.208 402.284 402.316 402.334 402.396 402.697 402.982 403.174 403.784 404.554 404.975 405.376 405.516 405.184 404.841 404.809 404.817 404.824 404.939 405.246 405.565 405.885 406.232 406.54 406.791 407.187 407.518 407.95 408.464 409.049 409.495 409.727 409.975 410.258 410.215 409.883 409.177 408.209 407.742 407.284 406.154 405.447 405.09 405.88 406.469 406.173 406.236 406.455 406.675 406.734 406.719 406.732 406.78 406.855 406.968 407.173 407.428 407.565 407.66 407.774 408.061 408.385 408.615 408.844 409.223 409.611 409.566 409.389 409.777 410.54 411.042 411.441 411.672 411.924 412.315 412.806 413.621 414.342 414.919 415.569 416.382 417.155 417.962 418.729 419.927 421.033 421.73 422.229 422.729 423.313 423.784 423.962 424.096 424.246 424.342 424.436 424.351 423.905 423.448 423.135 422.721 422.204 422.045 422.287 422.649
393.742 393.73 393.71 393.571 393.369 393.225 393.143 393.134 393.129 393.117 393.099 393.088 393.042 392.973 392.87 392.766 392.707 392.727 392.751 392.745 392.722 392.697 392.678 392.672 392.672 392.666 392.641 392.629 392.616 392.591 392.556 392.543 392.541 392.529 392.483 392.43 392.416 392.364 392.213 392.199 392.215 392.231 392.243 392.246 392.237 392.213 392.174 392.157 392.219 392.352 392.446 392.468 392.461 392.44 392.423 392.407 392.368 392.255 392.086 391.836 391.684 391.65 391.711 391.775 391.795 391.722 391.66 391.678 391.716 391.742 391.75 391.713 391.657 391.639 391.649 391.733 391.838 391.854 391.77 391.656 391.596 391.616 391.63 391.544 391.351 391.203 391.3 391.615 391.804 391.668 391.362 391.273 391.412 391.573 391.68 391.772 391.73 391.642 391.528 391.473 391.473 391.484 391.476 391.488 391.511 391.526 391.487 391.313 391.082 390.975 390.964 390.982 391.066 391.208 391.336 391.415 391.415 391.337 391.002 390.46 390.461 390.804 391.022 391.046 391.065 391.055 390.941 391.067 391.07 391.07 391.061 391.04 391.018 390.985 390.949 390.874 390.802 390.765 390.76 390.76 390.76 390.761 390.764 390.788 390.846 390.919 390.949 390.9 390.83 390.787 390.765 390.745 390.729 390.754 390.854 390.959 390.99 390.86 390.672 390.541 390.471 390.616 390.829 391.025 391.154 391.274 391.483 391.685 391.951 392.153 392.297 392.423 392.601 392.765 392.851 392.934 393.807 395.124 395.838 395.591 396.441 397.625 398.826 399.877 402.044 404.313 405.233 405.323 405.106 405.097 405.237 405.37 405.811 407.069 409.012 410.591 411.918 412.45 412.537 412.46 412.301 412.123 411.858 411.436 410.762 409.927 409.121 408.656 408.235 407.973 407.856 407.741 407.362 406.953 406.629 406.123 405.578 405.985 406.848 407.473 407.409 406.801 405.78 404.906 403.815 402.968 402.023 401.431 400.948 399.876 399.113 398.759 398.574 398.536 398.474 398.418 398.413 398.425 398.44 398.368 398.341 398.512 398.748 398.802 398.759 398.916 399.054 399.192 399.29 399.338 399.34 399.551 399.783 400.004 400.159 400.26 400.314 400.377 400.438 400.826 401.572 401.935 402.065 402.205 402.355 402.404 402.31 402.145 401.942 401.26 401.442 401.517 401.585 401.724 401.814 401.928 401.915 402.046 402.129 402.174 402.215 402.277 402.488 402.816 403.26 403.925 404.759 405.445 405.824 406.241 406.4 406.154 405.708 405.534 405.408 405.377 405.438 405.573 405.697 405.949 406.274 406.614 407.072 407.751 408.199 408.675 409.162 409.718 410.211 410.622 411.023 411.316 411.294 411.017 410.394 409.666 408.952 407.865 406.91 406.428 406.018 406.729 406.508 406.283 406.309 406.519 406.711 406.79 406.805 406.806 406.817 406.885 407.086 407.376 407.549 407.679 407.827 407.967 408.253 408.576 408.867 409.216 409.597 409.922 410.172 410.269 410.48 410.959 411.454 411.786 412.01 412.3 412.814 413.327 413.945 414.654 415.431 416.314 417.186 417.983 418.832 419.626 420.879 422.108 422.958 423.631 424.391 425.141 425.624 425.761 425.744 425.737 425.853 426.147 426.198 425.803 425.352 424.96 424.126 423.202 423.014 423.212 423.52
393.77 393.753 393.713 393.563 393.362 393.23 393.178 393.201 393.224 393.225 393.217 393.212 393.167 393.089 392.959 392.828 392.756 392.769 392.781 392.772 392.744 392.722 392.694 392.684 392.682 392.681 392.67 392.666 392.655 392.644 392.634 392.637 392.636 392.608 392.549 392.5 392.469 392.42 392.227 392.189 392.19 392.206 392.225 392.236 392.216 392.184 392.135 392.143 392.259 392.415 392.489 392.461 392.397 392.355 392.353 392.373 392.368 392.277 392.129 391.923 391.767 391.68 391.635 391.7 391.793 391.726 391.634 391.577 391.581 391.594 391.591 391.571 391.558 391.567 391.622 391.73 391.839 391.865 391.793 391.691 391.631 391.637 391.641 391.559 391.369 391.222 391.319 391.628 391.828 391.697 391.424 391.464 391.621 391.634 391.663 391.761 391.705 391.618 391.512 391.437 391.454 391.367 391.396 391.475 391.512 391.517 391.468 391.284 391.064 390.966 390.961 390.977 391.058 391.202 391.339 391.416 391.415 391.277 390.929 390.482 390.472 390.855 391.025 391.047 391.065 391.07 391.069 391.069 391.069 391.067 391.056 391.041 391.018 390.985 390.949 390.88 390.808 390.766 390.76 390.76 390.76 390.76 390.761 390.788 390.85 390.923 390.952 390.913 390.849 390.795 390.765 390.745 390.731 390.757 390.857 390.969 391.005 390.893 390.716 390.589 390.508 390.647 390.831 390.978 391.138 391.339 391.555 391.745 391.982 392.166 392.274 392.353 392.464 392.567 392.631 392.688 393.268 394.777 395.916 395.686 396.438 397.403 398.379 399.394 401.41 403.33 404.533 405.021 405.177 405.342 405.499 405.656 406.141 407.644 409.233 410.352 411.536 411.915 412.04 412.209 412.386 412.5 412.439 412.258 411.914 411.392 410.761 410.377 410.137 410.099 410.107 409.91 409.375 408.763 408.002 407.253 406.347 405.999 406.128 406.448 406.45 405.884 404.963 404.223 403.216 402.344 401.754 401.455 400.698 399.685 399.016 398.551 398.443 398.444 398.417 398.405 398.416 398.478 398.53 398.452 398.379 398.505 398.645 398.644 398.671 398.764 398.964 399.314 399.391 399.292 399.217 399.417 399.697 399.965 400.119 400.184 400.26 400.42 400.699 401.036 401.388 401.634 401.768 401.915 402.068 402.174 402.161 402.06 401.922 401.35 401.13 401.433 401.56 401.833 401.996 401.975 401.988 402.025 402.09 402.181 402.284 402.522 402.808 403.174 403.717 404.578 405.612 406.346 406.758 407.226 407.366 407.215 406.855 406.547 406.332 406.213 406.064 405.981 405.973 406.045 406.319 406.685 407.235 408.134 408.771 409.409 409.952 410.552 411.158 411.678 412.097 412.379 412.384 412.166 411.682 410.872 409.832 408.546 407.645 407.461 407.48 407.415 407.09 406.91 406.934 407.146 407.235 407.138 407.006 406.963 407.011 407.126 407.313 407.531 407.695 407.875 408.057 408.199 408.495 408.84 409.161 409.464 409.795 410.134 410.45 410.651 410.939 411.317 411.67 411.939 412.23 412.72 413.407 413.877 414.424 415.123 415.964 416.905 417.79 418.601 419.471 420.308 421.673 423.024 424.011 424.896 425.833 426.676 427.237 427.386 427.343 427.318 427.558 427.982 428.033 427.603 427.054 426.51 425.401 424.524 424.378 424.447 424.518
393.8 393.777 393.665 393.46 393.273 393.179 393.156 393.189 393.227 393.241 393.245 393.246 393.194 393.113 392.993 392.88 392.81 392.817 392.815 392.795 392.767 392.745 392.715 392.696 392.69 392.69 392.689 392.689 392.689 392.69 392.69 392.69 392.679 392.629 392.588 392.541 392.511 392.459 392.239 392.181 392.169 392.19 392.214 392.23 392.21 392.175 392.129 392.163 392.296 392.444 392.484 392.413 392.323 392.281 392.298 392.351 392.374 392.306 392.203 392.088 391.949 391.784 391.79 391.859 391.8 391.681 391.592 391.536 391.516 391.504 391.489 391.484 391.5 391.548 391.618 391.719 391.823 391.852 391.791 391.703 391.646 391.651 391.65 391.575 391.4 391.258 391.348 391.632 391.806 391.704 391.627 391.638 391.592 391.531 391.613 391.726 391.683 391.597 391.452 391.316 391.228 390.981 391.3 391.464 391.488 391.485 391.409 391.248 391.07 390.982 390.969 390.988 391.097 391.261 391.393 391.42 391.415 391.376 391.242 390.929 390.788 390.943 391.04 391.061 391.069 391.06 391.054 391.054 391.054 391.05 391.043 391.033 391.013 390.985 390.95 390.883 390.816 390.772 390.762 390.76 390.76 390.76 390.765 390.798 390.866 390.934 390.962 390.925 390.859 390.797 390.765 390.745 390.731 390.756 390.852 390.961 391.002 390.912 390.753 390.632 390.547 390.66 390.795 390.916 391.091 391.333 391.591 391.772 391.971 392.126 392.19 392.206 392.258 392.332 392.373 392.39 392.795 394.356 395.53 395.945 396.487 397.238 397.99 398.889 400.569 402.318 403.797 404.679 405.116 405.4 405.769 406.073 406.772 407.87 408.513 409.228 410.312 410.964 411.457 411.771 412.166 412.572 412.785 412.837 412.799 412.486 412.034 411.899 411.963 412.106 412.187 412.092 411.653 410.927 409.853 408.995 407.537 406.14 405.35 405.059 405.001 404.556 403.857 403.333 402.678 402.031 401.577 400.679 399.821 399.3 398.773 398.464 398.411 398.409 398.405 398.41 398.447 398.587 398.672 398.68 398.65 398.719 398.702 398.947 398.853 398.748 398.861 399.273 399.417 399.199 399.115 399.369 399.732 400.047 400.19 400.211 400.245 400.386 400.616 400.869 401.108 401.299 401.368 401.439 401.461 401.571 401.71 401.977 401.932 401.168 401.294 401.222 401.394 401.779 401.99 402.049 402.064 402.092 402.161 402.36 402.515 402.824 403.177 403.583 404.259 405.335 406.478 407.31 407.858 408.407 408.464 408.285 408.162 407.672 407.629 407.693 406.889 406.553 406.382 406.295 406.508 406.83 407.416 408.481 409.204 409.984 410.721 411.476 412.146 412.676 413.064 413.372 413.457 413.311 412.839 411.915 410.823 409.697 408.883 408.63 408.382 408.342 408.137 407.996 408.042 408.034 407.831 407.594 407.531 407.598 407.612 407.608 407.669 407.789 407.954 408.143 408.365 408.606 408.915 409.199 409.455 409.605 409.897 410.316 410.716 410.97 411.311 411.582 411.753 412.036 412.544 413.254 413.918 414.318 414.932 415.639 416.441 417.391 418.277 419.126 420.103 421.003 422.398 423.731 424.897 425.994 427.006 427.936 428.554 428.744 428.795 428.909 429.189 429.442 429.388 428.934 428.411 427.936 427.044 426.346 425.946 425.665 425.823
393.828 393.764 393.566 393.344 393.179 393.118 393.091 393.111 393.147 393.162 393.165 393.152 393.1 393.045 392.969 392.892 392.847 392.845 392.842 392.824 392.796 392.772 392.736 392.707 392.695 392.69 392.69 392.691 392.698 392.7 392.7 392.702 392.675 392.63 392.603 392.577 392.555 392.509 392.28 392.181 392.148 392.162 392.193 392.206 392.192 392.164 392.13 392.173 392.308 392.449 392.476 392.395 392.304 392.273 392.309 392.368 392.385 392.321 392.233 392.129 391.96 391.851 391.879 391.826 391.715 391.61 391.547 391.517 391.504 391.493 391.478 391.475 391.496 391.546 391.609 391.699 391.799 391.823 391.758 391.67 391.618 391.63 391.639 391.584 391.423 391.29 391.361 391.604 391.667 391.641 391.59 391.368 391.335 391.443 391.574 391.695 391.679 391.599 391.44 391.258 391.15 390.86 391.081 391.384 391.435 391.412 391.309 391.185 391.068 391.009 391.002 391.061 391.24 391.432 391.481 391.424 391.423 391.408 391.333 391.171 391.043 391.031 391.053 391.068 391.064 391.042 391.031 391.027 391.027 391.023 391.017 391.011 390.999 390.979 390.95 390.891 390.833 390.793 390.77 390.761 390.76 390.761 390.768 390.805 390.873 390.941 390.972 390.935 390.866 390.803 390.77 390.745 390.731 390.752 390.835 390.935 390.981 390.905 390.753 390.638 390.544 390.618 390.728 390.847 391.013 391.273 391.556 391.719 391.949 392.182 392.146 392.079 392.039 392.092 392.129 392.159 392.345 393.605 395.293 395.96 396.348 396.874 397.533 398.327 399.822 401.526 403.001 403.952 404.525 405.075 405.692 406.173 406.852 407.294 407.469 407.921 408.801 409.988 410.95 411.241 411.752 412.36 412.77 413.153 413.365 413.27 413.213 413.285 413.452 413.649 413.722 413.581 413.078 412.237 411.082 410.244 408.481 406.681 405.173 403.898 403.538 403.137 402.632 402.439 402.277 401.781 400.711 399.662 399.21 398.891 398.596 398.443 398.413 398.407 398.404 398.404 398.466 398.641 398.747 398.773 398.768 398.711 398.778 399.023 399.012 399.199 399.206 398.929 399.273 399.186 399.142 399.189 399.332 399.778 400.193 400.202 400.212 400.303 400.411 400.312 400.467 400.599 400.579 400.531 400.468 400.78 401.066 401.436 401.419 400.981 401.157 400.985 401.167 401.572 401.84 401.962 402.051 402.092 402.216 402.457 402.668 403.09 403.52 404.113 404.9 406.01 407.132 408.338 409.143 409.744 409.78 409.624 409.548 409.062 408.507 408.153 408.128 407.664 406.885 406.67 406.846 407.181 407.754 408.745 409.472 410.362 411.24 412.124 412.99 413.632 414.04 414.391 414.537 414.418 413.962 413.05 412.048 411.028 410.354 410.073 409.828 409.636 409.384 409.257 409.131 408.863 408.562 408.336 408.393 408.404 408.173 408.01 408.06 408.279 408.454 408.665 408.949 409.18 409.437 409.63 409.769 409.863 410.229 410.745 411.217 411.514 411.848 412.029 412.163 412.45 412.962 413.65 414.249 414.723 415.423 416.09 416.847 417.831 418.75 419.658 420.651 421.513 422.847 424.191 425.54 426.803 427.947 428.904 429.569 429.844 430.036 430.214 430.395 430.517 430.481 430.146 429.761 429.408 428.628 427.841 427.266 426.474 426.171
393.835 393.69 393.461 393.248 393.125 393.074 393.026 393.025 393.057 393.078 393.078 393.047 392.995 392.945 392.893 392.865 392.86 392.862 392.861 392.848 392.821 392.795 392.763 392.732 392.706 392.695 392.69 392.696 392.701 392.703 392.706 392.709 392.691 392.62 392.6 392.577 392.59 392.557 392.355 392.216 392.136 392.125 392.144 392.153 392.145 392.129 392.12 392.184 392.319 392.449 392.478 392.411 392.338 392.315 392.346 392.393 392.398 392.331 392.236 392.079 391.86 391.846 391.796 391.703 391.613 391.553 391.527 391.514 391.505 391.497 391.487 391.483 391.495 391.533 391.583 391.669 391.765 391.791 391.718 391.616 391.556 391.577 391.593 391.55 391.413 391.283 391.324 391.554 391.651 391.608 391.387 391.189 391.252 391.432 391.559 391.68 391.683 391.585 391.375 391.172 391.082 390.946 390.881 391.163 391.317 391.309 391.242 391.145 391.076 391.056 391.077 391.199 391.455 391.61 391.521 391.435 391.468 391.472 391.399 391.244 391.119 391.075 391.071 391.07 391.05 391.022 391.006 390.997 390.997 390.993 390.988 390.986 390.981 390.968 390.95 390.902 390.857 390.813 390.779 390.762 390.76 390.761 390.768 390.809 390.88 390.955 390.992 390.958 390.889 390.82 390.777 390.745 390.729 390.742 390.813 390.907 390.952 390.873 390.721 390.603 390.491 390.546 390.661 390.787 390.949 391.208 391.486 391.667 392.07 392.378 392.263 392.079 391.825 391.873 391.96 392.044 392.286 393.291 394.948 395.773 395.895 396.312 397.041 397.863 399.209 400.73 402.082 402.986 403.72 404.428 405.139 405.694 406.413 406.805 406.968 407.206 407.944 409.317 410.325 410.575 411.281 411.96 412.459 413.117 413.61 413.925 414.178 414.276 414.494 414.779 414.839 414.65 414.078 413.097 411.937 411.155 409.393 407.627 405.756 403.697 402.859 402.316 401.949 401.982 401.479 399.486 399.884 399.175 398.877 398.678 398.5 398.406 398.389 398.378 398.377 398.356 398.38 398.529 398.668 398.677 398.619 398.721 399.021 399.141 399.207 399.328 399.362 398.885 398.999 399.16 398.889 398.703 399.524 399.247 399.854 399.932 399.921 400 399.975 400.147 400.32 400.399 400.447 400.469 400.53 400.845 401.275 401.615 401.652 401.376 401.014 400.808 400.972 401.363 401.64 401.768 401.862 401.971 402.239 402.475 402.706 403.218 403.82 404.52 405.401 406.488 407.682 409.025 409.901 410.614 410.895 410.995 410.965 410.607 410.168 408.751 408.583 408.485 407.596 407.122 407.266 407.61 408.131 409.009 409.72 410.665 411.615 412.659 413.731 414.548 415.12 415.481 415.582 415.434 414.978 414.181 413.338 412.587 412.078 411.888 411.322 411.044 410.746 410.467 410.166 409.858 409.563 409.355 409.26 409.07 408.696 408.43 408.516 408.874 409.122 409.365 409.617 409.763 409.925 410.066 410.218 410.388 410.83 411.505 412.115 412.414 412.681 412.824 412.961 413.169 413.544 414.02 414.723 415.254 415.904 416.515 417.221 418.093 418.999 419.891 420.818 421.65 423.027 424.486 425.896 427.241 428.468 429.533 430.273 430.619 430.943 431.235 431.501 431.776 431.885 431.623 431.116 430.664 429.862 428.899 427.702 426.503 426.401
393.812 393.609 393.402 393.244 393.129 393.059 392.992 392.975 392.991 393.002 392.987 392.952 392.915 392.893 392.881 392.869 392.865 392.87 392.868 392.855 392.834 392.813 392.783 392.758 392.738 392.714 392.704 392.704 392.708 392.71 392.71 392.712 392.667 392.615 392.596 392.55 392.601 392.58 392.42 392.256 392.127 392.09 392.09 392.085 392.079 392.086 392.126 392.216 392.346 392.463 392.491 392.437 392.377 392.358 392.385 392.416 392.415 392.34 392.222 392.016 391.876 391.807 391.676 391.583 391.541 391.531 391.524 391.521 391.517 391.511 391.504 391.5 391.502 391.525 391.567 391.645 391.74 391.764 391.68 391.563 391.479 391.477 391.478 391.452 391.352 391.25 391.286 391.447 391.573 391.511 391.306 391.181 391.254 391.424 391.55 391.669 391.654 391.47 391.216 391.083 391.073 391.043 390.877 390.887 390.96 391.076 391.208 391.173 391.122 391.117 391.156 391.318 391.6 391.694 391.54 391.492 391.547 391.559 391.491 391.351 391.225 391.153 391.105 391.069 391.032 391.001 390.984 390.975 390.975 390.941 390.933 390.933 390.961 390.961 390.951 390.911 390.854 390.805 390.773 390.761 390.76 390.761 390.768 390.812 390.895 390.982 391.029 391.001 390.925 390.838 390.784 390.745 390.728 390.737 390.803 390.889 390.927 390.844 390.68 390.554 390.434 390.491 390.618 390.753 390.913 391.139 391.39 391.575 391.994 392.225 392.106 391.817 391.611 391.697 391.838 391.955 392.22 393.092 394.736 395.314 395.419 395.774 396.735 397.595 398.724 400.048 401.201 402.088 402.901 403.641 404.386 405.039 405.973 406.544 406.785 406.997 407.58 408.613 409.519 409.864 410.623 411.321 411.967 412.8 413.521 414.121 414.579 414.86 415.336 415.786 415.753 415.417 414.77 413.831 412.855 412.084 410.29 408.544 406.86 404.749 403.361 402.421 402.063 401.912 398.855 398.832 399.502 398.985 398.686 398.45 398.302 398.296 398.34 398.34 398.366 398.335 398.317 398.407 398.566 398.641 398.726 398.879 399.073 399.208 399.328 399.426 399.495 399.258 398.895 398.964 398.628 399.388 399.833 399.887 399.523 399.511 399.947 400.151 400.095 400.165 400.312 400.455 400.382 400.326 400.419 400.703 401.121 401.488 401.576 401.331 400.875 400.701 400.891 401.267 401.488 401.559 401.685 401.996 402.301 402.499 402.71 403.249 403.911 404.784 405.746 406.861 408.083 409.379 410.279 411.202 411.863 412.153 412.379 412.301 411.847 410.735 409.901 408.991 408.119 407.42 407.461 407.834 408.433 409.279 409.969 410.926 411.936 413.147 414.341 415.308 416.016 416.434 416.502 416.393 416.097 415.48 414.84 414.199 413.859 413.458 412.853 412.542 412.147 411.767 411.441 411.111 410.757 410.456 410.189 409.914 409.427 409.096 409.156 409.507 409.787 410.055 410.204 410.245 410.357 410.563 410.776 411.013 411.693 412.616 413.14 413.4 413.692 413.848 413.943 414.098 414.338 414.815 415.42 415.735 416.253 416.861 417.525 418.22 419.029 419.861 420.762 421.619 423.032 424.456 425.842 427.217 428.553 429.749 430.685 431.187 431.675 432.137 432.609 433.056 433.198 433.007 432.315 431.585 430.46 429.362 428.245 426.867 426.38
393.771 393.601 393.485 393.376 393.206 393.113 393.023 392.987 392.975 392.961 392.937 392.92 392.912 392.907 392.893 392.88 392.871 392.87 392.866 392.849 392.831 392.819 392.807 392.798 392.783 392.766 392.748 392.73 392.721 392.718 392.721 392.725 392.709 392.671 392.629 392.609 392.609 392.594 392.462 392.279 392.14 392.096 392.069 392.049 392.056 392.094 392.168 392.267 392.379 392.478 392.501 392.462 392.427 392.422 392.438 392.453 392.439 392.347 392.169 391.903 391.914 391.792 391.608 391.534 391.53 391.531 391.531 391.538 391.548 391.547 391.537 391.528 391.529 391.552 391.591 391.658 391.729 391.735 391.64 391.491 391.373 391.346 391.336 391.314 391.246 391.194 391.215 391.308 391.406 391.389 391.258 391.177 391.252 391.414 391.527 391.613 391.531 391.298 391.098 391.053 391.06 391.084 391.037 390.882 390.85 390.868 391.079 391.188 391.157 391.166 391.212 391.377 391.643 391.732 391.613 391.608 391.662 391.656 391.584 391.444 391.299 391.202 391.121 391.052 391.005 390.979 390.967 390.933 390.848 390.446 390.368 390.453 390.945 390.96 390.954 390.921 390.848 390.784 390.763 390.76 390.76 390.761 390.769 390.817 390.914 391.012 391.074 391.043 390.95 390.849 390.792 390.75 390.728 390.737 390.803 390.891 390.932 390.845 390.673 390.537 390.411 390.474 390.607 390.745 390.896 391.066 391.25 391.382 391.633 391.702 391.62 391.482 391.445 391.554 391.716 391.85 392.101 392.769 394.429 395.199 395.122 395.386 396.55 397.362 398.309 399.367 400.296 401.211 402.105 402.905 403.681 404.378 405.418 406.079 406.451 406.734 407.197 407.903 408.658 409.081 409.757 410.548 411.401 412.342 413.179 413.959 414.835 415.376 416.074 416.464 416.19 415.795 415.223 414.472 413.677 412.887 411.243 409.529 407.967 406.04 404.335 403.046 402.403 399.755 398.202 399.105 399.46 398.907 398.532 398.262 398.16 398.266 398.354 398.358 398.366 398.326 398.285 398.342 398.552 398.906 399.077 399.043 399.125 399.242 399.333 399.486 399.538 399.432 399.346 399.159 398.735 399.635 399.934 400.131 400.185 400.265 400.35 400.353 400.222 400.211 400.403 400.516 400.395 400.326 400.407 400.663 400.972 401.223 401.311 401.087 400.722 400.691 400.921 401.258 401.433 401.503 401.694 402.102 402.396 402.522 402.675 403.216 403.928 404.865 405.968 407.123 408.311 409.613 410.572 411.699 412.617 413.043 413.22 413.268 412.759 411.601 410.645 409.64 408.719 407.758 407.638 407.941 408.651 409.484 410.166 411.056 412.035 413.266 414.548 415.662 416.475 417.035 417.437 417.577 417.448 416.939 416.354 415.836 415.69 414.962 414.455 414.112 413.637 413.21 412.88 412.453 411.959 411.531 411.263 411.021 410.523 410.129 410.067 410.307 410.526 410.761 410.843 410.778 410.878 411.126 411.44 412.101 413.07 413.7 414.005 414.291 414.69 414.92 414.95 415.08 415.335 415.685 415.887 416.075 416.463 417.107 417.807 418.449 419.173 419.908 420.73 421.533 422.806 424.117 425.519 426.948 428.325 429.617 430.696 431.33 432.08 432.825 433.474 434.3 434.567 433.905 432.979 432.192 430.979 429.812 428.827 427.553 426.38
